236.2 137.8 39.8
235.9 135.2 31.3
229.0 145.2 42.9
226.9 135.1 65.6
117.6 73.1 30.2
127.2 69.5 26.8
127.1 83.5 30.3
178.0 101.4 39.8
192.8 117.2 25.5
179.5 122.5 43.7
176.1 102.2 35.4
218.8 141.4 29.7
227.9 125.2 34.0
231.1 127.6 34.7
243.4 147.0 40.9
87.2 52.8 13.4
119.3 81.6 28.9
145.8 82.2 33.2
152.6 86.5 32.5
171.5 101.9 38.9
183.0 123.9 44.3
189.4 130.0 40.3
232.9 129.0 31.7
243.6 143.0 45.3
243.9 143.0 45.5
242.5 139.5 49.4
92.5 59.2 24.9
80.6 49.6 10.6
175.8 97.6 46.5
121.9 74.9 23.8
185.9 118.6 37.9
190.0 122.2 33.3
180.0 100.8 41.3
206.8 111.7 33.2
224.1 120.0 40.8
226.2 121.6 40.1
234.5 124.9 58.0
230.1 136.1 32.1
225.8 128.2 38.1
93.4 60.7 23.1
93.4 60.7 23.1
83.0 51.4 14.9
128.4 66.8 20.7
196.1 101.8 35.6
178.4 119.9 44.7
216.5 122.3 47.3
209.9 138.2 42.8
215.4 138.4 39.2
215.5 138.6 39.0
217.2 126.6 39.2
215.0 136.6 49.4
98.9 63.5 23.6
54.4 31.1 8.2
72.4 46.8 14.1
81.2 45.3 19.3
81.2 45.3 19.1
81.2 45.2 19.3
81.4 45.4 19.2
80.9 45.3 19.2
102.9 58.9 15.2
100.6 54.0 25.9
129.4 67.4 30.0
215.8 128.0 33.8
228.1 117.9 40.3
96.8 66.1 25.3
79.0 51.2 15.1
178.4 92.1 35.6
113.5 70.8 26.4
149.0 86.9 37.0
152.6 94.9 41.8
152.8 94.9 42.0
152.6 95.1 41.8
152.8 94.9 41.8
196.1 126.9 35.4
218.8 116.1 48.4
201.9 141.5 42.6
215.9 150.0 51.0
240.9 141.8 40.3
240.6 145.0 30.9
240.6 145.0 31.1
231.5 131.9 53.1
231.9 128.2 60.0
135.0 72.2 31.7
130.4 75.9 19.2
148.6 77.6 34.5
164.0 93.5 39.3
173.4 116.0 47.0
158.0 110.6 32.3
207.4 141.0 38.5
215.8 140.9 41.0
212.8 127.9 52.5
239.6 141.9 30.6
225.5 127.6 51.8
238.0 149.8 61.8
107.1 56.8 20.0
107.8 67.2 20.5
117.9 80.9 28.0
115.1 77.2 28.7
115.1 77.2 28.8
115.1 77.1 28.6
136.8 91.2 33.9
133.6 79.9 37.8
167.5 86.4 31.7
166.6 102.6 30.4
167.4 104.9 28.2
213.0 133.2 30.1
231.8 125.1 36.0
231.5 148.5 33.9
98.2 64.1 18.9
92.2 56.2 26.7
74.4 45.1 14.6
155.4 93.9 29.5
166.4 111.2 45.9
170.5 101.8 40.8
204.9 138.0 37.7
226.2 119.3 40.7
226.1 119.2 40.6
246.9 137.9 56.6
90.1 58.6 16.4
97.4 63.4 19.2
59.4 37.7 8.0
59.4 37.7 8.0
143.4 75.3 21.9
155.5 93.8 22.0
158.4 84.8 27.5
172.6 95.7 26.0
161.0 90.1 37.8
193.9 115.6 38.8
220.8 142.1 32.3
238.8 149.5 34.0
238.5 133.8 32.1
86.7 50.6 11.7
88.2 58.9 24.3
94.9 63.2 18.7
115.5 59.2 22.4
118.6 69.0 30.5
171.9 89.9 38.9
160.4 89.6 37.4
160.9 104.9 38.7
207.8 144.6 42.2
235.8 134.9 39.2
92.4 60.5 26.2
136.4 89.6 28.3
157.4 86.3 25.8
171.6 95.8 40.0
171.6 95.7 40.1
179.8 117.6 44.4
199.4 131.5 35.6
200.2 123.4 50.1
215.4 121.8 51.0
221.5 141.2 55.2
80.8 52.1 14.5
125.9 80.0 32.4
155.2 93.5 24.5
174.1 105.0 37.9
196.5 120.1 33.9
164.1 101.5 28.9
235.2 135.6 40.1
95.8 62.6 22.9
97.0 58.2 24.9
94.2 62.4 25.6
186.6 95.8 38.5
144.2 92.6 23.2
129.5 87.2 35.2
143.2 93.9 38.0
168.8 96.7 44.0
170.2 95.8 26.1
184.1 115.4 43.6
185.2 122.1 33.4
196.4 120.6 53.9
202.2 118.9 34.3
201.6 105.2 36.7
207.0 135.1 53.5
229.4 159.1 50.1
26.4 16.2 5.2
121.6 73.3 29.7
161.4 99.9 28.3
184.6 117.2 38.0
156.4 102.9 34.4
224.4 134.5 36.5
233.1 149.0 48.1
240.4 142.2 68.8
61.9 35.0 8.4
141.2 93.7 24.6
139.2 79.6 29.8
144.8 88.5 28.9
156.0 97.6 24.9
171.0 102.6 47.3
210.4 138.9 39.8
234.1 129.4 31.4
93.5 60.5 20.5
107.0 63.3 15.0
168.4 110.1 29.5
195.9 109.0 49.8
222.6 118.6 42.1
224.1 136.0 34.2
208.8 131.2 55.0
226.9 127.8 33.3
90.4 57.9 24.3
90.4 58.0 24.5
113.6 72.0 31.3
112.1 76.8 26.8
136.1 75.2 25.7
155.5 90.3 22.4
154.0 98.6 36.2
161.2 86.5 34.5
180.0 106.9 32.1
190.1 112.3 45.6
164.8 101.6 28.5
164.5 101.6 28.5
215.4 138.4 47.3
97.4 59.4 23.5
92.2 59.5 25.6
100.1 57.0 17.1
127.9 68.2 23.8
187.9 116.3 30.1
158.5 100.9 41.4
218.6 116.9 47.0
224.2 128.5 37.1
226.1 119.8 43.9
228.2 125.9 43.8
234.1 134.9 40.9
231.8 128.9 55.0
94.4 62.4 25.4
119.4 67.6 17.4
123.6 71.3 31.9
134.0 70.4 23.5
129.4 69.1 24.0
130.2 84.1 31.6
158.9 86.2 36.8
158.6 102.4 40.0
216.2 121.8 31.6
215.8 122.3 56.3
212.0 141.6 39.8
89.9 61.9 17.2
96.2 62.3 20.2
76.8 44.3 10.8
181.1 97.1 41.4
167.4 95.8 26.4
183.9 106.2 39.9
200.4 124.9 53.7
248.4 136.1 48.4
232.8 128.5 61.2
80.5 50.9 14.8
180.1 98.5 37.3
142.8 97.5 34.0
195.4 115.9 32.8
175.0 102.9 28.8
191.2 123.4 40.4
190.9 129.4 37.3
159.5 109.2 39.6
210.4 109.8 40.7
217.8 134.0 36.9
230.1 120.2 40.6
231.5 130.4 32.1
72.4 49.7 12.4
139.2 90.3 27.2
139.2 90.4 27.2
139.2 90.4 27.2
156.5 96.3 23.5
174.0 100.8 35.0
204.8 122.9 30.3
207.8 113.2 40.9
209.9 134.8 49.8
217.0 150.6 52.6
67.7 42.6 15.6
100.6 65.6 14.2
138.2 91.5 27.0
159.2 95.4 31.1
189.1 100.4 35.7
184.5 126.6 44.4
159.4 103.4 43.6
223.4 123.4 40.2
203.6 140.5 42.6
226.0 122.3 39.4
237.9 132.6 35.5
237.4 146.8 41.1
242.0 139.9 48.1
242.0 139.9 48.2
231.1 132.5 53.4
240.1 150.2 35.4
43.0 24.7 11.1
109.4 67.5 19.5
213.8 110.1 43.8
221.4 117.6 41.6
205.5 126.0 31.0
219.1 146.6 51.3
235.1 135.4 40.2
241.9 142.9 35.9
86.1 58.7 19.8
81.1 46.2 21.4
121.1 71.4 34.5
132.4 79.1 35.6
164.5 93.6 45.4
195.8 109.3 32.4
179.8 104.3 29.6
185.8 120.2 50.5
198.1 129.6 30.9
202.6 110.1 28.7
211.0 123.1 28.8
230.8 153.5 46.2
41.2 23.6 8.9
61.9 41.2 11.3
77.2 49.5 16.5
128.5 66.8 21.8
128.2 74.4 35.3
136.5 72.6 31.0
136.6 72.6 31.0
147.1 88.3 37.0
152.5 90.8 22.1
168.2 104.0 46.1
174.5 103.1 35.8
175.1 100.6 27.2
183.9 109.6 30.1
196.0 120.3 53.1
192.4 126.4 31.4
223.1 143.9 38.8
227.5 122.5 38.3
93.4 60.2 26.1
182.1 97.8 47.2
139.8 77.1 22.4
141.4 93.8 24.5
155.2 82.4 30.0
173.1 115.0 26.9
185.4 117.0 38.5
199.1 109.3 48.4
194.4 125.0 35.0
221.6 120.1 43.0
218.6 118.4 36.8
233.2 129.5 34.0
233.1 129.2 33.9
233.2 129.1 33.9
233.2 128.9 34.0
233.2 129.5 34.0
93.1 55.8 16.0
96.9 63.2 19.7
135.9 72.7 26.3
144.5 89.8 41.7
171.0 101.6 43.8
190.9 120.1 50.8
191.1 120.2 50.8
191.2 120.0 51.5
190.9 120.3 50.7
190.8 120.1 50.9
200.4 120.4 28.9
213.9 112.1 50.0
216.9 114.1 51.1
235.0 144.1 37.8
229.6 135.8 49.8
230.1 153.2 37.5
87.4 46.2 21.4
106.3 55.1 23.1
132.4 70.0 21.8
150.8 92.8 24.2
169.1 99.2 21.9
198.5 114.0 26.5
197.9 114.3 35.3
189.1 117.3 33.2
192.6 118.0 34.9
176.9 117.0 41.8
192.4 130.5 51.4
199.0 135.0 51.8
220.1 118.0 45.8
220.1 118.0 45.8
222.1 121.6 45.2
211.2 145.9 48.3
231.4 134.4 30.8
238.2 140.8 68.4
236.0 152.9 56.2
87.6 51.3 12.0
81.6 49.7 12.2
121.9 81.5 30.5
131.1 82.6 35.9
192.8 107.2 29.1
153.8 100.5 25.7
162.5 110.2 34.6
166.4 105.6 38.4
218.2 145.8 41.3
206.0 126.7 32.1
217.1 126.5 35.7
208.0 142.2 47.9
208.1 142.2 47.9
232.4 128.6 37.3
228.4 131.4 32.1
154.8 97.6 38.7
175.6 100.6 47.9
221.4 118.3 45.7
221.8 127.6 41.1
208.9 142.1 46.6
243.1 141.1 46.3
235.6 152.0 52.2
84.8 51.6 10.6
74.1 43.3 13.0
173.5 96.4 45.3
185.2 95.2 38.6
114.9 60.7 23.0
115.8 70.5 30.2
146.5 74.9 30.8
182.8 118.6 38.7
205.2 139.9 37.2
234.1 129.2 31.8
237.9 137.8 38.8
240.8 149.4 37.6
233.4 131.2 52.0
99.5 56.3 24.8
113.9 70.9 31.1
128.2 67.6 26.9
149.8 86.5 34.3
159.0 100.1 30.8
176.5 109.6 38.4
197.5 129.6 36.0
172.5 101.6 30.2
204.0 140.0 39.7
233.9 135.5 29.7
240.8 140.9 65.0
85.2 59.3 17.4
92.9 54.5 26.0
63.0 42.2 10.8
63.8 36.2 9.1
68.6 37.8 9.1
82.3 43.1 15.3
76.9 52.8 15.6
76.9 52.7 15.6
181.1 114.5 34.8
201.6 113.1 44.3
206.6 142.6 40.9
209.2 135.9 34.3
233.2 130.1 36.0
233.2 130.4 36.2
232.9 131.0 35.9
246.1 139.8 52.1
246.2 139.8 52.1
81.6 49.2 22.4
81.9 49.2 16.4
121.5 73.3 29.8
121.4 75.0 29.9
123.1 74.1 30.2
158.8 92.5 44.5
156.4 98.9 28.5
177.2 113.6 41.6
154.6 102.4 25.1
247.6 146.2 44.4
247.5 146.2 44.3
233.8 159.2 60.5
80.1 46.9 17.7
149.2 93.1 23.0
155.4 88.1 21.8
199.5 123.9 28.2
216.0 131.8 37.7
220.0 135.8 46.3
238.1 147.1 40.1
231.9 129.6 60.4
237.2 129.9 57.7
85.0 59.4 17.6
93.8 60.5 18.6
96.1 62.5 20.9
174.9 96.2 46.8
152.1 89.1 28.8
193.5 114.6 34.3
193.5 114.6 34.3
193.5 114.8 34.4
193.5 114.6 34.4
193.6 114.4 34.2
193.5 114.5 34.1
190.6 110.2 29.3
220.2 118.7 45.8
234.9 135.0 31.3
230.2 126.4 59.3
227.9 152.8 38.3
84.9 54.9 14.1
66.0 44.8 15.0
103.0 57.7 14.1
124.5 70.6 32.9
135.2 72.3 29.7
130.6 77.4 19.5
130.8 76.4 18.9
154.5 80.4 25.3
185.2 116.8 44.4
215.6 118.2 45.8
216.6 146.4 36.4
234.1 144.6 38.2
94.5 61.4 24.8
86.8 51.0 11.8
178.4 98.9 33.3
164.1 95.3 25.1
179.0 106.2 22.7
184.5 103.2 49.8
229.8 148.4 44.5
99.1 57.5 23.3
75.6 43.0 12.7
83.2 45.6 17.4
120.2 68.1 17.8
146.9 96.1 41.7
191.5 111.4 44.5
177.8 101.4 41.8
192.8 117.9 45.2
216.1 121.5 30.6
215.2 122.4 32.8
226.6 118.9 40.5
234.0 143.4 39.3
234.1 142.9 39.2
129.2 79.1 30.6
169.9 90.3 31.7
174.5 103.2 30.6
192.6 130.0 50.4
192.5 130.1 50.3
219.0 117.8 46.6
217.4 118.6 36.0
227.4 125.9 43.2
233.4 133.8 65.8
237.0 129.1 52.1
118.3 75.2 32.1
191.5 113.9 31.3
196.1 131.6 36.6
237.2 128.0 39.2
232.8 129.0 33.3
235.6 146.4 44.4
72.8 40.6 10.7
138.9 79.7 18.0
142.0 97.4 24.3
173.1 98.7 31.9
179.0 100.4 37.3
221.9 142.2 45.2
227.4 138.0 34.4
235.5 130.5 56.2
235.2 130.1 57.1
242.5 153.6 36.3
94.4 53.6 24.9
86.7 50.6 13.0
86.7 50.5 13.0
71.0 46.5 14.1
77.9 45.2 18.6
113.0 65.5 24.9
136.4 82.4 28.6
151.1 86.9 19.4
161.1 100.1 28.7
197.6 102.6 44.6
188.0 116.1 36.6
193.2 115.0 34.3
200.9 115.9 44.5
219.6 129.4 37.1
219.6 129.4 37.2
209.9 130.4 52.8
234.8 149.9 49.9
244.5 144.9 41.5
138.5 73.7 29.0
146.4 75.6 30.7
178.6 102.1 45.2
217.5 113.8 50.0
217.5 113.9 49.9
216.9 127.1 48.1
210.0 143.8 51.5
223.9 134.6 58.1
230.6 128.4 32.9
236.8 160.5 43.8
236.9 160.5 44.0
95.6 49.0 19.1
96.3 57.0 13.8
86.9 52.5 13.0
80.0 50.3 21.3
101.8 57.0 24.7
220.5 116.1 33.9
215.9 121.3 29.8
210.2 137.0 34.3
223.8 144.9 36.8
227.4 135.1 32.1
237.0 134.4 54.2
73.9 41.6 10.4
85.4 44.3 16.9
135.5 79.6 30.4
140.4 97.2 34.7
150.6 101.1 26.9
218.2 134.6 48.9
228.6 118.6 39.8
237.8 132.6 32.2
231.2 134.4 40.0
88.8 58.7 17.0
28.1 19.2 5.3
81.2 45.7 20.7
120.9 64.1 29.9
123.1 76.9 30.2
124.8 76.9 29.2
126.9 76.2 34.2
132.2 88.4 31.9
153.8 89.2 21.1
184.6 100.8 37.0
199.4 114.2 35.6
170.4 100.6 41.6
170.4 100.5 41.5
216.1 121.8 31.1
231.0 126.8 36.1
87.4 51.2 11.9
93.4 61.7 14.5
101.9 56.3 22.2
127.6 68.8 25.0
175.1 102.6 28.4
217.6 137.9 37.5
213.2 146.6 38.3
216.9 137.9 38.7
227.0 147.2 31.1
227.1 146.9 31.1
226.8 147.0 31.0
233.1 129.2 54.4
96.0 57.6 16.2
96.0 57.6 16.0
93.1 61.3 17.4
78.8 47.2 14.1
157.6 90.9 39.7
178.5 106.4 33.2
211.6 136.4 31.8
241.9 137.0 36.8
239.4 153.0 32.0
251.8 130.1 55.0
85.2 58.3 15.9
94.6 57.0 26.1
65.5 36.2 9.1
105.1 55.6 20.8
143.9 87.4 41.3
138.6 88.0 27.0
155.1 90.1 35.5
176.2 91.6 30.1
190.2 123.1 33.8
196.9 127.8 34.4
157.1 105.3 39.8
165.0 102.0 29.0
224.2 137.4 38.3
234.9 134.6 31.0
230.6 133.8 31.2
84.8 53.9 12.0
147.5 91.6 31.2
150.6 91.9 19.3
177.6 117.6 45.8
196.8 127.6 34.3
220.2 119.4 35.9
207.8 138.8 37.8
228.4 139.4 42.7
89.7 57.0 24.2
99.7 54.3 16.4
91.4 55.9 25.5
116.3 78.2 30.1
168.2 96.3 25.0
175.8 103.1 29.8
184.1 123.5 31.4
198.9 119.7 42.3
216.4 119.2 47.2
224.0 121.8 39.3
209.6 139.6 40.3
221.1 149.6 37.8
228.4 127.0 47.7
235.0 128.4 61.3
244.9 128.0 57.7
82.2 54.1 22.4
99.0 64.9 17.8
56.4 37.3 14.9
70.4 44.0 11.1
174.4 99.7 35.7
161.8 85.4 34.3
170.4 93.4 33.1
188.8 115.6 30.4
198.6 131.4 28.8
193.6 130.1 30.9
161.1 100.3 22.1
160.8 102.4 42.3
234.0 137.6 31.5
229.4 144.0 44.8
231.2 130.2 50.0
104.2 58.8 26.3
106.8 69.6 29.0
106.8 69.7 28.9
114.4 74.8 29.4
120.4 63.2 29.2
126.8 76.2 33.5
166.1 85.5 34.4
180.1 116.4 44.3
192.6 127.4 44.5
219.5 146.2 48.2
230.5 146.1 45.5
235.9 147.9 46.2
225.6 134.6 64.3
239.4 140.0 58.4
241.5 135.5 56.4
64.0 36.6 9.9
105.1 69.2 22.0
118.3 71.4 32.6
222.2 123.7 46.7
217.4 123.9 32.3
212.8 120.9 30.0
206.9 137.2 43.5
230.1 138.9 29.6
241.9 146.8 40.3
98.6 68.1 22.7
175.6 106.8 37.3
175.9 101.2 36.9
184.9 115.4 30.9
222.8 119.9 39.7
218.4 125.8 38.7
217.1 127.1 35.8
239.0 141.4 35.0
234.0 133.0 54.8
231.9 154.0 52.6
231.9 154.1 52.5
232.5 154.0 52.7
53.2 29.7 9.7
130.1 72.5 21.1
157.4 92.9 38.5
178.1 101.6 41.2
197.1 129.2 35.0
212.0 119.7 47.1
212.1 119.6 47.0
95.3 59.4 23.3
83.9 45.6 17.1
188.4 97.2 36.1
121.6 76.5 30.7
175.2 104.2 26.7
217.4 124.0 35.4
240.5 144.4 41.9
232.8 135.5 57.7
232.4 134.2 62.8
86.8 52.8 13.6
82.1 45.4 20.7
146.0 94.2 23.0
191.2 118.9 48.7
191.2 118.9 48.7
224.1 119.9 43.2
204.1 112.2 34.4
200.1 106.9 48.4
221.0 125.2 38.1
220.9 152.4 39.6
85.7 55.1 22.0
94.8 61.5 19.7
80.4 51.2 20.1
118.9 81.6 24.2
124.5 82.6 31.2
123.3 80.7 32.8
148.8 92.1 23.7
158.6 99.8 21.9
165.6 92.1 35.2
185.8 116.4 49.4
231.4 135.1 31.0
238.2 137.4 39.2
231.6 130.9 48.9
236.6 144.1 62.1
240.2 132.6 60.8
90.0 58.0 24.1
82.4 46.9 19.8
82.2 46.6 19.9
80.6 50.7 18.3
115.7 73.1 18.4
120.0 79.9 24.9
154.0 96.6 25.5
177.9 100.6 39.8
192.2 123.7 38.6
195.2 126.0 34.7
195.2 126.1 34.8
240.1 131.8 33.5
87.8 55.3 15.1
36.4 20.5 7.5
62.2 41.0 11.3
81.2 45.0 18.2
118.6 63.6 18.0
123.0 75.8 29.6
136.0 89.2 27.8
159.0 93.4 30.3
194.6 114.2 35.2
176.5 103.6 31.8
184.1 111.2 30.2
197.0 109.4 48.9
199.0 109.8 48.8
187.5 101.9 48.3
218.4 116.6 48.3
232.8 128.5 61.6
56.5 30.3 12.1
174.5 101.4 27.0
179.2 102.1 50.2
199.8 129.2 34.9
161.8 101.0 22.0
164.6 101.3 27.9
206.0 116.3 40.3
209.9 127.6 56.1
226.6 123.2 47.7
229.9 126.1 54.3
234.9 129.0 57.8
233.6 129.1 55.8
242.0 141.0 65.9
227.2 152.5 38.9
228.6 150.2 33.7
96.7 64.3 23.9
102.9 68.8 23.3
116.7 81.1 22.1
126.0 77.8 34.5
144.5 93.4 25.9
156.5 96.5 29.3
162.8 90.6 32.9
175.4 100.8 27.9
202.2 108.7 47.8
201.9 125.1 51.6
220.1 139.1 57.3
92.9 53.3 14.8
93.0 53.4 14.7
97.1 57.0 25.3
74.4 46.6 11.3
81.8 50.5 16.1
141.6 92.7 25.7
178.2 119.1 40.8
185.5 122.9 30.3
178.4 101.7 45.9
170.4 102.9 36.4
217.5 118.6 31.0
225.9 122.5 51.1
246.9 144.8 43.7
98.4 66.6 20.2
95.6 62.4 26.6
130.5 76.7 23.2
155.1 98.6 30.4
157.6 90.4 27.6
156.8 92.9 41.8
154.1 86.0 33.5
181.9 101.3 28.8
183.2 107.6 28.7
161.9 106.1 44.7
200.4 138.9 36.7
239.0 147.5 40.1
233.4 142.5 44.5
70.5 45.2 14.5
70.5 45.2 14.5
65.1 38.8 13.0
102.2 55.9 21.9
122.1 73.1 29.9
113.8 75.6 21.8
117.4 76.8 28.8
179.1 102.8 44.3
194.8 119.9 42.1
184.6 118.8 46.9
176.9 108.1 42.4
170.0 100.4 37.8
220.8 115.8 42.7
226.6 118.1 47.1
232.4 141.6 62.4
231.5 129.5 54.1
92.2 49.7 16.5
90.7 51.1 21.9
28.5 18.3 3.8
63.7 36.0 9.3
63.7 35.6 8.8
63.7 36.0 9.3
63.7 36.0 9.1
51.9 33.0 11.8
176.6 99.1 44.6
141.2 95.1 22.7
137.9 79.2 26.9
169.0 96.9 43.8
175.9 94.6 32.8
172.9 109.3 23.8
189.9 109.7 36.2
221.9 119.8 37.6
222.1 119.7 37.2
203.6 110.8 40.4
221.6 116.8 48.6
216.2 126.8 39.3
213.2 138.9 40.7
241.8 138.8 50.6
85.0 58.3 15.8
115.0 64.0 24.1
100.4 59.9 25.9
116.5 67.2 32.2
113.7 77.2 27.7
113.7 77.2 27.6
130.2 68.5 24.7
189.1 107.2 32.0
182.6 114.6 37.7
189.0 104.0 49.8
161.0 103.4 43.2
218.1 125.1 35.5
206.4 108.8 45.4
213.2 144.5 46.5
228.9 141.2 43.1
87.9 46.8 14.9
36.4 22.5 7.8
122.9 72.3 31.7
139.4 82.1 26.0
152.1 97.4 22.5
196.0 101.8 33.8
185.2 113.1 53.1
185.1 113.1 53.2
199.8 126.8 45.4
235.6 128.4 58.9
238.6 155.0 50.5
228.5 152.6 53.3
39.2 21.6 5.9
79.0 51.9 20.9
131.1 89.6 28.0
158.9 90.2 39.2
189.6 125.3 53.0
156.9 102.1 31.0
212.5 121.1 37.3
214.0 130.0 31.9
214.0 130.1 31.9
225.5 127.6 51.5
250.9 132.6 54.7
85.8 56.1 15.7
93.1 59.3 25.2
76.4 51.8 16.2
130.1 76.0 21.3
172.0 97.7 38.8
169.4 110.2 43.4
179.9 106.6 31.9
198.5 109.8 33.0
165.4 105.3 32.5
208.5 114.2 28.3
208.6 114.4 28.2
219.0 114.9 50.9
201.2 108.8 50.2
93.0 60.0 25.4
65.6 35.6 13.8
83.2 51.7 14.6
174.6 95.7 45.2
131.1 70.3 22.8
131.4 70.4 23.0
147.5 92.2 23.3
224.6 123.7 38.6
210.8 118.5 33.9
240.1 130.8 35.0
238.4 135.6 34.7
89.1 50.1 24.7
79.8 41.8 13.2
193.6 98.8 40.1
111.6 70.4 15.4
111.3 69.4 29.6
122.9 75.6 31.5
138.8 95.7 24.5
181.8 108.1 31.8
209.0 110.8 36.7
203.8 119.1 56.7
215.2 135.0 37.2
231.4 122.3 36.7
230.8 120.6 52.1
229.9 144.6 33.2
240.6 152.2 34.3
92.4 55.4 26.3
50.6 26.2 10.6
132.0 73.1 22.8
133.6 68.1 26.0
137.5 71.4 26.4
129.1 81.4 30.5
156.1 89.2 30.9
180.6 101.2 23.8
185.1 111.8 35.2
189.1 101.1 35.4
176.8 100.9 38.3
214.5 121.3 30.3
219.8 136.1 35.9
208.4 141.1 48.2
232.1 136.6 59.4
91.8 57.4 18.8
88.3 60.8 21.8
50.5 29.4 12.8
79.2 49.3 19.5
106.8 73.8 24.2
121.0 77.8 29.8
143.4 87.8 41.2
135.5 81.6 25.6
133.0 91.8 27.5
151.5 93.9 43.1
192.4 103.6 31.6
239.1 136.1 32.9
93.7 60.8 24.9
73.4 40.2 10.1
146.6 93.9 38.7
194.1 133.9 42.5
205.9 143.8 46.1
230.5 124.2 51.0
233.5 158.9 52.8
236.4 153.6 51.6
90.8 57.8 24.4
82.5 43.0 16.0
82.6 42.6 16.0
82.6 43.0 16.2
82.6 43.0 16.0
82.4 43.1 16.0
194.4 116.1 36.1
175.4 100.1 35.2
195.2 110.8 40.8
164.9 103.2 45.6
221.8 121.1 54.7
205.5 127.0 31.9
214.1 133.9 29.8
219.0 146.1 46.5
96.1 62.3 23.0
60.6 36.4 9.8
173.8 95.3 27.9
176.0 107.1 37.7
151.1 103.2 25.6
206.4 119.4 39.1
219.6 133.1 30.1
206.9 127.8 33.6
226.1 116.0 42.5
64.7 36.5 9.9
81.9 49.8 11.9
80.5 44.8 19.4
156.5 97.3 24.2
162.4 94.4 23.6
159.5 94.8 41.1
194.4 115.2 45.3
169.0 100.1 43.2
168.6 102.2 32.4
221.6 118.1 37.1
203.8 132.4 41.4
200.9 135.6 36.0
218.2 130.6 38.0
238.9 144.4 68.9
89.9 55.8 22.4
61.0 41.8 13.3
73.5 38.8 13.4
71.9 43.8 12.9
185.5 97.2 39.0
104.4 59.2 21.2
110.6 70.9 15.8
120.2 69.1 34.0
135.2 72.3 27.7
143.4 93.2 38.3
150.6 84.4 19.6
188.0 115.9 36.2
189.1 107.7 39.0
183.4 100.2 34.8
181.5 114.2 35.0
196.5 129.8 29.4
169.9 101.9 41.9
210.0 118.5 32.1
208.4 144.8 41.5
228.2 123.9 36.6
224.9 125.8 37.4
239.8 130.4 33.8
63.7 37.5 16.9
105.6 65.6 14.1
142.1 76.9 22.5
173.8 104.3 25.7
222.2 120.9 39.0
221.5 117.2 44.9
214.5 125.5 32.8
226.8 118.6 45.4
230.9 121.8 41.9
232.4 133.9 42.5
79.4 42.6 17.6
82.0 53.0 14.8
185.1 98.4 38.8
105.4 68.4 28.9
117.5 73.4 31.8
137.8 77.9 35.6
156.2 97.4 28.6
191.1 106.0 26.3
202.9 114.7 26.8
238.2 146.0 61.6
233.8 128.6 61.8
99.6 58.1 22.8
92.3 59.1 25.4
92.2 58.5 25.9
114.2 74.8 19.3
122.4 78.7 26.1
128.5 66.5 21.1
142.9 87.8 41.0
191.1 105.6 25.7
183.6 125.8 33.8
222.9 120.0 42.2
222.5 120.1 41.8
222.9 119.9 42.1
212.4 109.5 37.1
204.9 110.2 38.9
218.6 114.9 50.5
246.1 137.4 55.3
90.8 57.1 19.2
91.7 59.3 25.7
96.2 63.2 25.6
41.3 24.2 8.0
65.8 43.4 16.6
62.1 41.2 11.3
109.6 62.4 14.5
111.2 67.7 23.9
122.3 83.6 30.8
111.6 77.1 25.5
129.0 76.2 23.5
141.4 81.2 26.2
171.8 94.0 30.5
197.4 103.4 42.2
188.2 102.9 35.9
195.1 117.1 32.9
164.0 108.3 27.3
232.4 126.8 32.3
232.5 137.5 35.0
240.0 128.5 36.1
240.0 128.5 36.2
233.1 136.5 32.5
239.0 127.9 35.5
86.9 50.8 12.6
83.4 45.4 22.1
198.5 113.3 28.6
197.6 102.5 45.5
188.5 121.7 28.4
167.8 102.6 24.7
159.6 101.6 28.0
222.6 139.5 53.4
236.2 152.2 52.6
94.3 57.2 21.8
176.6 96.1 36.7
100.4 56.3 17.0
118.6 71.2 23.1
175.6 105.6 26.7
183.2 120.8 32.7
150.4 101.2 29.3
166.0 104.6 43.1
204.6 108.9 42.2
211.1 122.6 41.0
208.9 111.8 49.0
203.5 127.9 32.4
224.0 135.8 34.4
203.9 127.6 32.4
212.4 130.0 50.5
233.2 134.0 30.4
236.6 136.9 41.2
77.0 41.7 12.3
80.8 44.9 19.3
80.8 45.0 19.4
178.4 99.9 29.7
104.7 56.4 27.4
110.6 76.4 23.3
159.0 83.4 26.9
196.5 107.3 31.2
188.5 120.2 32.2
191.2 104.2 37.8
159.6 102.9 27.5
154.9 100.9 28.3
204.4 126.2 51.5
225.0 135.8 35.2
83.3 52.9 11.9
179.4 99.6 39.3
141.8 77.4 22.9
141.8 77.2 22.8
127.5 80.5 31.2
186.4 107.1 37.0
175.4 109.6 40.8
175.2 109.6 40.8
175.2 109.6 40.8
175.5 109.6 40.8
188.5 118.4 35.4
175.6 103.3 29.0
207.0 120.1 38.9
206.5 120.1 38.9
204.5 122.9 30.5
222.0 120.9 38.9
230.9 121.2 37.4
95.1 63.5 18.9
103.1 56.7 23.1
119.2 77.6 23.6
141.1 95.7 22.8
141.2 95.6 22.8
182.1 103.3 39.4
184.6 119.8 39.5
202.2 139.6 35.9
240.0 141.1 37.4
229.4 128.8 49.5
194.0 106.0 33.4
202.2 136.9 38.2
81.6 51.2 13.3
182.5 93.7 38.3
133.5 73.8 20.8
133.2 81.3 30.0
174.4 95.8 28.9
198.1 104.9 46.4
181.4 116.1 50.4
216.1 123.6 34.7
230.9 126.1 32.3
179.6 98.4 40.5
135.0 71.5 29.7
158.0 94.1 43.0
172.9 101.8 35.6
184.9 118.6 46.8
167.6 103.1 32.1
167.6 103.0 32.1
167.6 103.1 32.2
167.6 103.1 32.1
167.1 103.0 32.2
220.9 114.6 42.7
202.5 136.1 34.9
236.0 145.5 61.5
245.5 139.1 53.1
120.1 63.2 27.5
111.2 77.4 25.1
126.9 78.8 19.7
140.8 93.0 25.8
148.2 91.8 27.5
162.1 90.2 35.8
157.2 108.3 36.3
224.0 118.1 42.0
209.1 138.9 48.8
229.1 128.4 48.5
241.0 128.4 61.1
96.4 61.3 23.9
25.1 16.9 5.4
178.0 99.4 46.5
138.5 88.6 33.3
145.8 83.5 32.2
153.8 87.4 30.8
163.5 107.2 36.9
223.8 122.0 59.8
60.4 38.2 9.0
125.0 85.1 32.1
144.1 90.6 24.4
158.9 95.0 45.1
182.4 117.2 25.8
188.2 102.7 49.7
187.1 108.8 53.1
195.1 127.6 31.7
204.5 109.9 41.7
239.8 137.0 54.0
101.2 65.6 28.0
145.0 97.6 28.3
142.5 81.4 26.4
142.5 81.6 26.5
142.4 81.4 26.4
155.4 99.3 24.4
173.8 105.2 35.4
184.5 105.7 39.3
185.4 123.1 31.4
162.4 104.0 39.6
206.9 110.7 39.9
219.5 125.8 39.5
57.6 36.7 11.0
78.9 52.5 20.8
146.4 91.0 22.6
142.2 96.8 36.4
158.0 84.0 30.2
194.8 113.9 35.0
187.0 100.9 38.8
189.8 116.8 36.3
197.1 113.4 35.3
185.6 106.7 51.7
248.0 128.6 44.0
93.6 60.4 23.5
92.7 51.5 18.8
99.8 67.9 17.2
29.9 16.5 6.7
29.8 16.6 6.6
171.9 99.8 43.1
171.6 100.4 42.9
150.2 94.2 39.2
169.2 86.2 33.2
164.6 89.1 35.2
161.5 96.6 26.2
157.6 103.1 39.5
217.8 121.8 43.7
201.5 117.9 34.2
202.4 109.1 50.4
205.4 124.0 57.2
76.8 44.3 9.7
79.9 44.7 21.4
186.0 99.0 42.0
156.9 97.2 30.6
156.5 97.1 30.2
155.5 85.2 32.7
172.0 89.8 39.3
192.5 116.7 35.0
191.5 103.9 36.5
218.6 115.2 42.8
215.9 121.5 29.9
212.6 124.4 45.1
223.8 120.7 43.4
215.0 114.2 40.7
211.6 124.7 59.0
209.0 137.4 35.3
207.0 143.4 49.1
208.1 144.0 47.9
207.5 142.9 49.0
207.2 143.4 47.9
207.8 143.6 49.1
237.0 160.6 44.4
89.9 62.0 22.6
94.6 64.1 15.2
19.0 10.6 5.2
19.1 10.5 5.2
19.0 10.6 5.2
19.0 10.6 5.2
101.1 60.0 25.9
169.6 96.6 24.8
224.0 114.7 45.5
218.6 124.1 36.6
222.0 126.9 40.7
230.6 153.8 37.4
234.6 155.4 45.7
60.2 38.8 9.2
60.2 38.7 9.2
60.2 38.8 9.2
60.4 38.5 9.5
157.6 95.1 24.4
181.2 100.4 31.8
166.6 101.8 26.5
219.6 124.8 37.2
203.6 124.4 53.2
209.8 126.1 41.8
203.5 134.0 29.8
207.1 134.4 57.4
226.9 143.0 41.4
238.1 135.0 36.2
98.9 61.4 26.2
103.4 62.2 21.6
123.1 71.2 18.0
130.4 86.8 23.6
137.9 83.7 27.8
144.9 90.4 26.7
188.9 120.0 37.0
192.4 107.8 51.7
200.1 129.6 41.3
224.2 152.6 39.4
231.4 122.9 42.1
225.8 141.9 41.4
71.3 43.0 13.5
71.9 44.7 13.6
76.8 50.8 16.9
138.5 90.0 25.8
157.5 96.9 32.5
190.2 115.4 52.5
194.5 120.4 52.2
208.5 122.4 36.3
208.2 138.5 41.6
230.4 130.5 46.3
233.0 134.5 50.7
229.8 152.1 39.8
58.8 37.8 8.0
182.2 95.8 32.6
176.4 93.9 42.1
122.9 74.6 34.8
162.4 99.3 21.3
157.0 100.1 37.9
163.1 105.4 27.6
246.6 145.1 44.3
86.9 46.7 22.6
87.1 46.8 22.7
174.1 103.4 32.8
171.9 116.5 28.4
206.0 111.9 35.8
215.9 120.7 30.1
215.9 120.8 30.1
207.0 134.5 57.0
95.4 62.0 21.4
95.9 62.0 21.3
78.3 45.4 9.8
120.9 81.5 29.7
131.0 70.9 22.2
131.1 70.8 22.0
137.5 90.8 31.5
169.0 111.5 45.9
179.8 114.0 34.4
199.1 112.5 44.9
217.8 116.4 47.2
208.0 126.3 29.4
246.4 129.8 41.5
241.8 139.8 64.8
89.8 59.5 16.5
92.1 59.2 25.6
139.0 80.3 17.4
166.4 105.8 26.8
207.6 116.1 41.7
207.5 116.5 41.8
207.8 116.2 41.8
207.8 115.8 41.7
207.8 115.7 41.5
207.9 115.6 42.0
206.2 110.6 39.1
55.5 31.4 15.4
172.4 89.4 39.0
167.5 104.1 43.6
213.9 110.2 42.5
207.5 140.1 39.6
234.6 133.9 38.3
246.1 140.5 52.4
229.9 152.6 41.5
84.6 50.3 14.1
177.9 118.4 41.1
184.9 117.4 37.8
190.5 109.4 51.2
86.2 52.2 13.0
77.2 51.5 12.1
81.5 51.2 13.5
111.4 67.6 28.6
136.8 79.9 28.7
154.2 96.7 40.7
194.2 122.4 35.2
193.2 120.2 50.8
222.1 123.2 46.2
225.8 128.1 38.7
226.0 136.6 39.3
93.4 60.6 24.7
119.5 69.9 33.5
137.8 86.8 36.8
188.1 111.2 43.9
178.5 103.6 27.0
161.0 112.2 38.2
206.9 136.8 53.2
232.5 140.8 62.4
235.2 150.2 33.3
90.1 62.1 21.4
94.9 58.8 13.1
79.3 45.5 18.6
75.8 40.7 16.8
137.9 83.5 28.3
194.4 118.8 43.5
168.8 101.2 22.4
162.2 103.0 22.7
172.0 108.3 41.5
209.1 123.6 53.7
223.6 128.0 51.2
239.5 132.2 31.8
59.2 35.6 10.6
80.9 45.2 19.0
113.7 62.8 27.6
137.4 78.2 33.4
162.5 96.4 30.9
183.5 115.0 46.4
196.4 127.9 34.7
201.8 108.4 51.0
248.9 134.1 47.3
230.9 156.0 41.6
96.8 52.6 22.7
27.5 14.8 4.1
27.8 14.8 4.1
27.7 14.7 3.9
27.4 14.7 4.2
143.0 74.9 23.0
144.0 98.9 33.6
180.6 115.4 44.7
195.0 106.8 28.6
182.9 117.6 38.4
227.6 124.6 34.7
233.1 134.6 38.7
232.6 145.5 46.0
95.2 62.1 24.6
84.5 48.7 17.5
185.9 95.2 38.9
105.8 63.9 22.2
124.2 72.8 32.5
131.2 76.8 17.7
144.9 86.9 33.9
167.9 87.4 30.9
191.5 123.7 42.0
233.0 130.4 62.3
99.7 68.5 17.2
74.1 44.3 11.0
74.1 44.3 10.8
74.1 44.4 11.0
113.4 61.5 16.3
133.4 71.4 23.3
137.9 79.2 27.1
135.1 76.8 29.0
188.2 118.6 45.0
176.0 103.1 30.5
179.4 112.2 33.8
218.8 124.2 36.7
224.6 131.5 36.2
227.6 124.6 59.0
239.1 141.2 35.4
93.9 60.4 13.2
93.8 60.4 13.3
81.9 46.2 17.2
111.6 70.2 15.9
120.7 76.8 23.1
151.6 91.1 20.1
170.0 92.1 33.5
191.2 113.7 30.5
197.2 127.8 32.9
211.1 108.6 37.3
213.4 123.0 37.1
204.4 116.9 36.8
220.0 135.2 34.2
179.4 105.1 46.6
184.0 113.9 34.2
209.4 116.8 44.5
221.9 126.1 38.1
226.6 138.5 61.7
225.4 152.9 38.3
228.8 157.5 47.2
234.5 159.9 53.2
88.0 59.3 22.2
92.9 53.0 17.4
41.4 24.1 8.2
118.7 75.3 32.1
193.9 120.2 41.2
189.6 120.9 37.1
189.4 121.0 36.8
153.5 102.5 28.1
203.0 114.0 42.3
207.1 140.0 39.5
71.7 44.2 13.2
80.3 50.4 20.3
123.5 81.9 31.4
123.6 82.1 31.4
131.9 67.2 26.7
131.8 66.8 26.7
131.6 66.9 26.7
155.5 97.3 24.3
183.8 105.2 42.0
176.1 106.8 40.6
228.0 122.8 39.1
98.9 64.3 24.1
94.1 60.8 25.8
182.1 95.6 31.8
112.4 70.6 14.8
142.4 88.1 29.8
138.4 81.1 26.3
157.2 85.4 26.4
173.0 98.1 29.6
198.0 112.1 33.9
193.8 119.1 33.8
208.0 113.2 40.7
213.5 125.1 55.4
217.2 122.5 53.5
207.6 140.8 36.8
221.6 138.4 35.4
226.0 137.4 32.4
242.1 130.6 42.2
237.9 150.5 58.9
132.9 79.1 18.5
133.0 80.1 30.1
150.5 86.1 19.3
166.8 95.9 44.2
185.1 124.8 32.8
176.6 107.1 28.5
160.9 107.8 43.8
218.6 138.4 32.5
241.0 141.0 34.7
232.6 151.6 49.0
93.5 61.7 15.1
95.7 59.1 25.3
93.8 62.7 25.4
77.5 51.8 15.5
132.0 73.9 34.8
129.1 87.6 28.2
174.1 102.8 33.9
171.8 102.9 31.6
205.9 117.7 40.8
208.1 112.2 32.7
207.8 120.8 54.7
204.2 135.0 33.3
215.5 142.0 36.4
231.8 126.0 31.7
235.4 145.4 61.2
240.0 137.2 53.8
245.1 140.4 56.0
241.2 133.6 62.8
71.6 46.3 14.3
80.8 50.1 22.1
172.0 99.1 43.5
191.2 119.8 50.0
217.2 119.3 47.0
230.9 130.4 51.8
86.9 51.0 11.8
95.1 64.4 24.8
72.9 46.8 13.1
122.1 76.7 17.0
139.5 80.2 39.6
138.1 91.8 37.0
155.0 95.6 25.3
153.6 93.8 22.5
186.9 101.8 34.1
165.6 103.6 29.2
223.9 120.2 42.8
242.2 140.5 36.7
85.8 58.4 17.5
99.4 55.5 25.7
92.4 57.3 26.3
62.6 37.8 11.1
66.4 43.2 12.5
59.6 37.6 8.0
59.6 37.6 8.0
78.6 46.6 13.8
184.9 96.2 38.6
115.1 62.8 24.2
129.8 67.1 27.1
137.9 81.8 36.9
183.6 118.9 43.8
184.0 109.0 30.5
197.6 119.9 44.6
168.8 103.1 44.1
200.0 120.1 34.5
221.2 140.2 51.0
86.8 47.5 17.5
64.1 42.2 12.1
120.1 79.9 25.1
143.6 77.0 21.0
130.1 76.6 28.6
162.6 94.6 23.6
193.1 105.5 30.0
198.1 129.0 34.7
168.4 102.9 41.4
168.4 102.7 41.7
168.4 103.2 40.8
168.0 102.8 41.6
168.5 103.8 41.2
167.6 102.4 42.4
182.5 96.8 38.8
118.9 72.2 28.6
142.1 76.6 22.5
155.4 89.6 22.3
179.1 122.6 45.1
198.4 105.8 38.2
220.8 116.6 35.6
202.5 116.4 43.9
206.2 122.6 30.1
203.2 119.6 55.2
208.8 144.0 41.1
238.8 138.6 37.2
231.2 133.4 64.2
244.6 129.2 58.3
92.5 50.8 20.4
84.9 54.7 20.5
86.3 55.7 15.2
120.8 79.4 25.2
127.8 68.2 32.0
131.4 72.9 25.6
175.0 95.3 29.3
175.6 123.0 40.1
178.5 124.2 43.6
183.4 120.6 51.0
224.1 126.8 38.2
83.2 56.4 14.3
95.2 63.3 25.7
84.2 51.6 10.6
84.2 51.6 10.5
84.1 51.5 10.2
186.0 101.6 36.5
212.6 129.8 49.9
225.9 123.3 55.9
242.6 135.2 53.8
236.0 154.9 33.3
98.4 57.1 20.2
49.1 32.7 9.0
134.8 71.6 33.5
145.5 91.1 39.6
169.4 89.9 34.0
205.2 127.9 31.9
214.2 130.9 30.6
210.1 134.9 45.7
221.9 137.9 62.9
234.9 152.9 54.8
97.8 67.2 24.3
97.2 63.0 24.0
93.2 59.3 26.8
70.3 43.3 13.9
82.4 46.3 19.5
188.4 99.7 40.9
140.0 92.4 26.0
170.2 89.9 37.3
162.0 94.5 26.9
190.4 117.1 38.1
192.1 105.7 51.6
192.1 105.7 51.6
213.5 131.8 30.3
233.5 139.6 41.4
245.9 141.2 50.9
74.9 43.0 12.6
81.2 52.9 14.6
178.6 98.5 32.7
139.6 83.8 23.9
153.4 90.9 24.4
151.9 99.4 25.3
177.9 116.5 27.5
183.6 112.6 34.2
180.8 109.8 34.0
180.0 107.2 48.2
190.6 107.4 50.5
197.1 135.0 42.9
201.8 117.6 29.0
209.0 116.8 40.2
212.0 128.8 30.9
209.8 139.8 42.1
63.6 41.0 10.3
70.1 39.9 14.5
118.5 65.4 26.5
194.6 118.4 43.5
165.9 104.7 42.8
165.8 104.9 42.8
211.4 137.6 37.5
227.4 133.5 42.3
235.5 132.9 63.8
95.5 63.3 25.2
81.1 42.8 14.5
80.9 42.8 14.7
101.6 56.2 24.5
147.9 90.6 22.5
142.5 98.4 30.0
199.9 102.9 35.9
190.6 121.0 52.8
166.6 101.5 21.8
155.1 106.7 35.5
213.8 111.4 41.9
210.8 136.8 35.7
227.0 135.1 55.8
246.4 137.5 55.3
226.2 153.6 42.2
99.3 61.2 17.3
90.6 58.6 24.7
145.9 92.6 23.0
190.8 108.4 28.8
203.9 131.9 42.0
205.9 142.1 41.7
226.6 130.2 39.0
227.6 128.4 41.1
236.1 152.1 52.8
86.8 46.8 17.0
93.7 61.9 25.1
76.7 46.7 22.0
110.4 68.1 28.8
175.4 96.6 29.7
173.9 104.1 45.9
198.8 132.4 50.1
153.4 103.2 33.0
164.4 106.0 46.9
219.9 139.4 30.0
65.8 36.8 10.3
74.3 42.2 10.5
71.3 46.4 14.6
101.8 65.9 28.6
137.9 87.9 27.6
155.8 86.9 23.4
174.5 111.2 40.5
202.2 120.2 52.7
208.1 141.0 40.1
231.8 141.2 31.9
226.1 137.5 40.2
242.0 143.4 40.6
95.3 49.3 18.7
85.7 59.7 17.3
82.2 54.3 14.9
57.2 30.0 10.2
145.0 92.5 22.9
141.8 98.1 35.5
140.9 84.8 40.7
189.5 120.9 36.5
195.4 112.6 26.7
190.1 120.4 36.0
153.4 102.2 24.1
165.5 103.9 40.5
217.4 123.9 35.8
209.6 136.0 30.6
220.2 127.2 38.1
106.1 59.8 20.9
117.4 75.8 31.8
156.4 98.1 41.3
178.5 104.5 38.0
187.2 118.4 36.9
185.5 118.8 38.3
186.6 116.9 35.2
194.6 125.3 35.3
84.3 55.7 14.8
131.8 70.7 21.8
129.9 88.6 21.5
134.1 75.3 32.0
162.5 91.8 39.0
162.5 91.7 39.1
163.2 98.4 27.5
169.5 113.3 36.2
179.9 115.1 39.8
153.2 102.1 26.9
212.2 124.8 40.8
212.2 124.8 40.7
201.0 135.9 36.3
201.1 136.0 36.3
242.2 138.6 50.7
85.6 55.2 21.6
67.4 40.2 15.9
79.2 46.5 17.3
123.7 74.2 32.1
121.4 76.8 21.5
136.4 73.3 34.4
144.0 81.4 31.9
174.8 107.2 39.8
192.0 102.0 37.9
176.8 109.1 29.5
222.0 119.2 44.3
92.4 58.7 25.1
94.1 63.2 25.6
79.5 47.7 20.5
114.2 70.4 31.1
143.8 92.9 23.5
159.4 84.8 28.6
166.6 90.4 35.9
167.4 101.6 22.0
165.2 101.4 30.2
216.9 127.1 35.4
250.1 132.4 50.8
96.5 63.9 24.4
91.7 57.1 25.9
72.1 41.2 20.3
83.4 46.6 22.5
100.8 56.1 19.7
113.2 71.4 32.7
136.5 88.6 24.9
126.2 80.6 33.7
197.2 113.2 44.8
209.1 138.4 31.7
233.5 159.1 38.5
81.6 43.0 19.4
82.5 53.2 14.8
82.4 52.2 10.7
115.1 62.4 23.8
153.1 95.9 24.2
153.1 95.9 24.0
154.2 90.1 26.5
168.1 88.1 34.6
183.1 103.4 40.5
176.2 102.4 32.6
223.5 119.2 45.5
225.4 121.8 54.1
225.4 121.9 54.2
229.8 141.5 36.3
245.2 148.2 37.5
87.2 52.2 12.9
86.3 54.2 12.2
65.4 35.7 11.8
79.2 48.6 13.9
147.4 96.2 38.8
156.1 95.1 22.9
161.1 83.9 32.3
169.5 111.8 44.2
198.1 105.9 47.2
193.4 104.0 41.0
240.9 130.4 35.8
242.6 156.0 32.6
95.2 58.1 21.1
137.6 85.1 28.5
137.9 83.0 27.6
138.1 86.1 33.6
156.4 86.8 25.3
162.2 92.9 40.1
172.6 118.7 40.2
193.2 107.8 28.0
224.4 132.0 36.3
209.0 144.4 43.4
236.6 153.1 55.4
86.1 55.8 22.1
53.8 31.8 7.7
79.8 47.2 17.1
79.7 47.2 17.1
84.2 48.8 16.8
100.8 57.9 24.6
120.4 79.1 18.4
150.5 83.3 34.9
160.5 83.5 31.8
160.8 83.6 31.4
160.5 83.2 31.3
160.6 83.4 31.9
161.1 82.9 31.6
195.2 103.9 44.6
216.8 121.0 29.3
203.1 130.6 45.0
203.1 130.6 44.9
251.2 132.2 54.8
95.2 58.2 15.9
88.6 51.9 21.0
96.4 63.4 25.2
78.9 50.0 11.0
123.6 75.1 21.0
214.4 124.0 45.1
229.0 148.6 56.7
95.6 62.2 22.0
87.5 51.8 15.0
67.9 41.9 13.6
119.8 67.5 16.8
138.5 76.3 36.5
172.5 98.9 36.6
166.9 95.8 44.3
195.6 127.0 38.3
165.1 102.0 29.5
165.1 102.0 29.5
165.1 103.2 29.6
164.5 101.9 29.7
165.2 101.6 29.7
165.6 102.6 30.3
164.9 102.1 29.9
165.4 103.1 29.8
164.8 101.8 29.2
165.0 101.6 29.1
165.5 102.7 29.8
165.2 101.8 29.5
166.2 101.5 30.2
165.4 102.2 29.8
164.6 101.6 29.6
165.1 101.9 29.6
165.8 102.1 28.9
165.5 101.9 29.7
165.2 102.0 29.6
165.9 102.7 30.5
165.4 101.6 29.4
165.0 101.9 29.4
165.4 101.4 29.7
165.1 102.2 29.8
165.4 101.9 29.7
206.8 137.2 37.1
220.8 134.5 27.9
91.2 57.5 25.5
78.9 41.0 16.6
123.0 72.1 31.9
131.4 74.5 33.2
171.0 98.9 21.2
173.2 104.4 37.1
179.0 107.0 51.2
190.6 132.1 40.4
173.2 102.7 24.1
165.8 104.3 42.6
165.5 104.1 42.4
165.8 104.4 42.6
165.8 104.2 42.7
165.8 104.7 42.5
225.9 124.6 37.3
231.9 149.2 34.0
242.4 135.1 37.6
225.9 151.8 37.3
89.8 57.6 21.2
131.2 87.0 24.3
137.2 81.6 28.6
144.6 84.2 27.3
144.1 97.1 31.6
168.9 87.9 32.6
189.9 117.6 43.8
178.0 111.2 38.2
194.8 125.0 35.8
210.1 140.6 48.8
238.8 136.5 33.0
233.8 143.4 44.6
229.1 127.2 55.9
97.8 56.4 12.2
86.9 52.8 13.3
98.7 60.0 19.7
93.7 62.1 25.2
90.8 56.5 26.0
83.6 50.1 14.8
131.0 79.6 30.0
191.8 128.1 45.1
165.1 101.6 23.0
203.5 130.0 45.3
226.4 124.9 47.3
144.1 78.2 37.1
194.9 124.1 34.8
195.6 133.4 50.4
225.8 137.2 32.6
225.8 137.5 32.6
104.1 59.9 18.9
120.3 69.8 28.2
116.4 65.5 32.2
135.9 78.4 29.9
127.4 76.8 27.7
154.2 99.9 25.4
161.2 96.6 31.8
162.2 89.7 35.0
181.4 109.4 52.7
154.1 101.8 24.5
204.4 109.8 43.5
222.9 142.8 32.0
247.5 128.8 42.5
242.4 138.4 65.0
98.0 63.0 23.8
98.0 63.1 23.9
75.6 45.1 14.9
150.4 86.6 33.1
173.6 97.4 32.5
175.0 101.1 27.7
166.5 105.8 42.8
212.5 124.4 48.1
212.1 124.6 48.2
212.1 124.6 48.2
219.5 133.0 37.4
210.9 126.5 42.2
35.2 22.4 9.2
80.1 46.5 18.3
83.5 49.5 15.9
82.1 49.8 16.0
82.1 49.9 16.0
82.2 50.2 16.0
82.1 49.9 16.2
82.1 49.8 16.0
82.2 50.1 16.2
82.2 50.2 16.5
82.1 49.8 15.7
82.1 49.7 16.0
133.5 74.1 27.9
151.9 97.6 24.9
195.0 111.5 26.1
201.6 130.2 42.0
229.5 139.2 35.4
91.6 56.0 16.1
77.9 52.6 20.5
100.6 54.3 20.8
100.6 54.3 20.9
141.9 78.7 24.0
160.1 93.3 41.4
153.0 101.1 38.9
162.8 100.9 36.0
204.2 112.7 38.7
210.0 134.1 38.4
230.0 133.8 29.6
226.2 139.0 60.3
240.5 140.1 67.8
229.0 157.8 48.9
87.3 47.5 16.1
87.3 47.5 16.4
96.3 63.2 25.4
52.5 31.7 12.1
65.1 40.6 18.6
117.4 79.9 23.4
139.2 93.0 21.3
157.6 86.0 30.6
173.6 100.6 39.1
190.9 115.6 27.1
202.9 117.6 35.5
238.0 133.6 36.2
230.5 127.0 57.2
87.8 60.6 21.4
92.2 58.6 26.3
61.1 41.1 12.5
105.6 61.6 21.6
105.5 61.6 21.5
105.6 61.7 21.6
138.5 78.5 22.4
155.9 82.6 32.2
168.4 114.7 28.9
195.6 124.8 34.5
199.1 131.2 37.1
204.2 117.3 44.8
210.0 131.6 39.9
232.2 127.4 40.3
239.9 140.2 35.8
236.4 129.5 51.4
88.1 55.4 22.4
35.6 22.5 8.7
62.4 38.2 11.4
121.8 75.2 24.0
121.6 75.3 24.0
136.1 80.9 39.1
161.1 99.9 29.7
211.8 128.8 30.7
208.4 142.0 46.4
230.0 134.4 31.8
231.5 129.5 51.1
243.9 139.2 50.5
82.2 45.9 19.7
79.1 51.0 14.9
122.8 68.2 17.9
143.9 95.9 26.5
156.8 98.4 29.2
164.1 94.6 44.5
174.8 103.9 37.2
185.6 122.9 40.8
207.1 139.9 39.7
210.5 133.2 37.8
208.5 141.0 40.1
247.9 137.0 39.5
234.8 155.4 49.4
93.8 61.7 25.0
90.7 53.2 25.6
136.8 70.6 26.0
133.4 75.4 18.6
156.4 84.5 28.2
174.1 95.2 28.9
178.6 103.5 45.4
213.4 108.7 43.0
213.2 117.8 30.3
213.5 117.9 30.4
213.0 117.8 30.1
204.1 138.6 36.3
226.0 125.1 35.3
83.3 45.6 15.1
27.6 14.7 4.4
117.2 70.1 27.3
185.1 124.7 43.4
191.4 106.3 27.6
198.6 109.6 48.4
220.9 118.2 44.9
102.4 57.4 15.0
111.0 69.6 17.7
139.8 80.3 20.5
137.1 88.9 26.5
146.2 88.5 29.0
189.4 120.9 36.7
202.8 127.2 33.3
234.8 131.0 32.8
237.8 144.4 30.2
246.2 140.0 53.8
92.4 57.0 26.2
115.9 69.4 16.6
130.8 74.4 33.2
132.1 79.0 16.8
144.1 95.9 28.8
176.2 100.9 40.4
181.8 116.4 36.3
191.4 108.2 50.6
163.6 100.8 26.0
169.1 100.4 41.0
168.0 100.7 43.3
224.0 131.1 29.4
219.5 137.9 36.3
232.1 124.2 57.7
226.4 144.2 32.7
239.5 132.1 33.9
64.9 35.9 9.8
70.8 47.1 17.5
151.0 88.2 31.2
195.4 128.4 30.0
221.6 119.4 44.4
204.0 137.6 35.9
204.8 138.2 37.3
242.6 127.9 36.9
231.0 158.6 52.2
25.6 16.8 5.4
138.4 95.2 24.5
148.2 89.1 32.2
155.6 83.0 34.1
174.1 119.8 42.9
176.9 100.4 40.9
185.1 121.1 34.7
185.2 121.1 34.8
181.4 116.8 39.2
190.1 124.4 40.5
177.9 112.2 39.7
188.4 101.4 48.9
237.9 135.1 31.8
241.8 143.4 39.7
229.6 155.4 42.8
93.8 60.4 23.2
61.0 40.0 10.2
73.1 44.2 10.0
78.6 52.4 18.6
180.8 95.7 41.1
123.5 66.6 31.1
114.4 79.2 27.3
144.8 95.9 25.6
155.5 97.9 39.9
165.6 87.4 25.5
171.8 90.7 26.1
194.0 135.5 38.9
166.4 102.9 31.4
214.1 134.0 36.2
207.2 126.2 32.0
208.0 144.6 46.9
86.5 59.5 18.6
56.5 30.6 13.7
101.8 65.9 28.8
139.1 77.9 22.3
193.0 101.1 47.0
181.6 115.5 40.0
205.9 118.6 40.0
221.0 117.2 48.2
225.9 122.5 47.8
225.1 125.8 37.7
232.6 134.8 41.1
239.1 131.1 62.6
99.4 59.7 15.0
90.3 55.8 26.3
70.0 39.1 10.1
120.5 76.8 22.9
136.6 78.4 23.3
136.6 78.2 23.4
142.9 75.2 22.2
128.2 80.4 31.0
156.0 88.4 41.4
174.9 99.4 27.2
197.1 102.8 40.2
196.5 110.5 47.7
199.1 124.6 57.7
218.4 113.4 42.2
219.2 146.6 44.8
220.2 152.9 41.0
231.6 131.2 31.9
181.0 94.9 40.9
119.9 78.1 28.8
149.0 90.2 19.4
148.9 90.1 19.3
149.1 89.9 19.5
173.2 95.7 25.1
198.9 103.6 46.2
195.0 105.9 27.8
193.8 112.8 34.2
192.0 108.3 51.2
205.0 129.4 44.8
227.2 123.2 49.7
239.9 133.6 31.5
232.5 156.9 57.3
179.6 99.9 37.3
107.5 73.1 21.4
116.1 76.1 29.1
158.2 84.6 29.5
234.1 125.1 36.0
88.1 52.3 11.3
136.9 91.2 33.2
158.2 84.4 29.3
185.6 105.4 28.1
196.6 127.6 38.7
165.9 101.9 20.9
221.1 120.1 44.1
232.8 127.6 56.2
97.9 63.0 24.5
81.6 46.5 17.5
122.6 74.3 23.0
113.9 72.4 31.0
148.6 77.4 30.0
151.9 91.3 19.1
166.8 85.2 34.0
168.5 86.4 33.9
183.9 106.3 29.8
186.6 117.2 37.4
151.6 102.8 25.7
207.4 124.6 59.8
207.4 124.6 59.7
238.9 130.2 33.4
235.0 137.1 49.0
193.5 112.9 32.2
192.2 107.9 51.8
196.2 127.9 31.4
192.2 129.9 50.3
157.6 100.7 24.3
202.1 111.0 51.6
216.5 137.4 38.3
229.0 132.8 40.4
228.4 129.5 33.3
227.5 133.4 28.3
227.8 132.0 39.0
227.8 131.9 39.3
227.8 132.4 39.3
227.8 132.0 39.1
90.2 54.6 12.9
73.9 45.8 20.5
122.8 75.9 35.5
125.6 70.4 34.5
141.6 75.4 21.3
141.2 76.1 23.0
137.1 88.7 28.4
156.8 98.0 23.8
164.6 88.9 35.7
174.1 112.1 49.7
220.0 117.3 45.7
219.0 124.5 46.2
222.6 144.9 54.3
230.0 133.9 31.4
232.4 139.1 36.9
234.0 136.5 44.1
229.6 155.1 51.7
94.3 61.3 22.5
94.5 61.1 22.4
90.1 57.8 24.9
138.5 74.2 29.1
142.2 88.7 40.4
130.6 80.6 31.3
171.2 99.2 21.9
176.2 100.7 37.8
156.5 101.0 24.8
207.9 124.2 33.4
90.9 57.6 13.6
78.0 41.1 17.1
189.5 98.8 42.5
142.2 82.2 27.5
175.6 115.6 42.4
178.8 109.1 44.2
185.1 112.4 53.2
212.4 139.6 37.9
228.9 153.2 36.8
231.2 155.4 52.5
92.0 51.5 12.1
180.2 94.3 32.1
118.2 72.3 30.5
118.1 72.3 30.4
125.9 66.4 20.2
135.5 75.6 30.5
139.9 83.9 27.1
207.8 140.6 38.3
207.9 140.4 38.3
206.9 140.6 39.1
222.2 143.6 55.9
246.4 136.0 58.3
97.9 59.7 14.2
89.8 50.6 23.2
80.8 50.9 21.4
153.8 84.4 34.4
155.1 86.4 31.1
187.8 120.2 38.3
179.2 105.0 46.0
182.6 117.9 38.2
195.5 106.7 50.3
224.0 140.9 34.3
210.1 130.8 46.2
84.9 48.4 20.6
111.4 64.8 14.3
146.6 91.6 38.4
175.5 103.0 28.1
190.9 119.6 50.2
198.1 125.8 40.1
159.2 103.6 40.7
203.6 111.0 41.2
214.6 112.7 42.8
242.8 139.1 55.9
85.8 48.7 16.4
110.9 59.2 26.9
138.6 73.9 29.1
133.4 75.4 27.3
135.0 82.8 33.9
144.2 79.4 28.8
158.0 89.8 39.8
177.8 106.3 21.9
178.0 104.5 47.6
196.1 122.6 33.9
217.9 113.6 40.4
206.6 136.5 46.2
243.1 140.8 47.8
78.4 47.3 22.0
181.2 95.2 40.5
119.2 79.5 22.6
130.2 76.4 16.7
137.0 86.4 29.9
141.4 76.8 36.0
155.9 87.4 22.2
209.4 109.9 32.6
218.5 120.6 39.1
224.9 129.5 30.7
235.5 148.6 37.9
240.9 140.4 62.3
236.8 153.9 51.1
86.7 51.4 12.2
95.6 61.8 25.5
95.1 63.1 25.7
68.5 42.5 13.7
56.6 36.7 11.7
74.9 41.1 14.3
182.9 94.9 32.5
101.2 57.0 15.3
117.6 76.8 28.7
128.8 75.8 32.2
147.0 87.4 41.9
156.1 87.0 33.3
190.8 108.3 28.3
187.5 120.8 38.0
195.9 117.4 31.0
196.0 117.4 30.8
192.0 127.7 48.9
159.4 100.3 42.4
206.9 125.0 52.8
207.5 144.2 47.8
239.2 140.1 68.0
242.8 132.2 59.6
85.4 54.3 21.7
101.9 63.6 24.5
119.0 70.9 32.3
157.0 89.2 30.9
161.2 90.1 37.6
172.2 89.6 33.3
178.4 100.8 48.5
196.8 108.3 49.6
217.9 115.4 39.7
219.6 135.9 29.0
247.5 143.5 49.4
187.0 99.7 42.5
130.9 76.9 28.0
177.6 104.2 42.5
196.9 119.1 41.4
196.6 107.6 31.0
212.4 115.4 39.9
207.2 109.2 39.8
214.0 122.8 49.5
215.8 131.0 27.9
138.1 90.9 27.9
156.2 97.3 41.2
170.8 91.5 32.2
170.8 91.6 32.3
167.2 85.3 32.0
171.5 103.1 49.6
199.1 106.7 38.2
217.8 113.3 42.3
209.1 109.8 40.6
206.2 130.2 47.0
227.6 154.4 52.5
250.2 128.9 49.6
87.7 49.8 13.1
90.2 56.7 18.8
92.1 60.5 19.6
70.6 48.5 14.2
77.8 50.2 16.6
176.0 98.8 30.5
118.1 60.3 21.2
116.8 68.4 16.0
132.9 72.1 31.4
138.6 78.0 18.5
151.9 91.2 40.2
186.1 122.6 31.3
184.0 121.6 50.2
96.8 65.9 24.5
60.2 37.8 7.8
119.6 69.9 33.2
158.9 88.4 29.7
181.6 108.4 32.0
193.9 104.8 30.0
223.9 128.4 36.7
214.2 143.4 37.4
218.8 134.8 36.2
229.1 132.4 29.0
239.0 148.2 30.5
233.9 150.1 47.1
30.4 16.8 7.4
52.3 29.2 11.1
184.4 97.6 38.7
119.9 80.1 28.7
159.5 83.9 27.9
199.2 112.5 34.2
183.5 111.3 34.9
198.8 109.3 48.3
149.6 101.5 39.9
162.2 103.8 39.6
210.0 131.4 45.8
237.0 145.5 50.5
235.5 149.2 51.7
91.1 54.7 13.7
74.6 42.9 12.9
74.7 42.9 12.9
74.6 43.0 12.9
74.6 42.9 12.7
173.9 100.2 44.8
188.9 117.7 52.1
189.9 125.6 45.9
93.6 60.7 25.9
82.3 48.7 19.0
22.2 12.2 5.9
22.2 12.0 6.0
135.2 91.6 27.5
149.4 87.3 32.5
151.0 86.3 19.1
151.0 86.4 19.0
150.9 86.2 19.1
183.5 108.8 39.2
176.1 111.6 41.8
210.1 135.1 29.8
238.0 141.6 38.3
236.0 156.6 59.2
235.9 156.8 59.3
61.2 38.0 14.5
118.4 71.2 23.2
119.4 80.8 24.8
144.0 96.4 28.7
158.1 96.2 34.8
175.8 107.3 40.8
193.1 115.2 32.7
195.5 125.5 35.8
198.9 128.6 33.8
218.4 147.5 49.7
226.8 145.8 33.5
94.1 62.2 25.5
118.6 72.2 19.4
135.8 69.1 28.4
131.9 84.4 35.4
170.8 89.3 36.9
162.4 100.8 24.7
163.5 101.8 31.2
88.3 51.9 17.3
97.9 52.6 15.2
93.7 64.5 17.9
59.2 35.6 9.8
105.2 64.2 26.2
180.4 113.8 32.4
177.2 100.9 42.2
198.9 109.4 48.4
221.0 117.1 50.6
226.5 127.9 52.8
86.3 55.3 15.1
86.6 55.5 15.3
68.8 47.8 13.9
80.8 52.4 12.6
177.4 98.8 30.1
177.4 98.8 30.1
162.8 95.4 43.3
177.2 121.1 38.2
225.2 119.8 37.4
233.6 144.8 39.2
236.2 146.5 34.7
178.9 99.6 46.4
102.4 59.8 12.9
136.5 75.2 24.5
147.5 88.1 36.2
162.1 99.5 21.0
169.5 96.1 24.3
171.0 97.2 24.6
186.1 119.4 37.0
186.4 118.8 37.6
186.2 119.6 37.2
186.8 118.1 38.6
186.0 119.1 36.9
186.0 119.0 37.0
186.2 118.4 37.7
186.0 118.7 37.3
186.9 118.2 38.2
186.2 118.7 37.6
186.1 119.0 37.9
165.9 105.2 36.4
210.2 109.9 47.9
207.5 140.4 38.8
229.4 135.4 31.6
235.9 157.8 45.1
92.9 61.2 25.1
72.6 43.3 13.4
69.6 43.1 14.1
55.1 35.6 13.1
100.1 54.4 20.9
136.9 77.5 29.9
175.2 111.3 40.9
175.1 102.8 26.6
179.6 106.3 31.8
217.0 140.2 37.3
216.9 140.0 37.3
237.0 149.1 33.0
237.0 149.1 33.0
86.4 47.9 18.7
66.8 43.6 16.0
179.5 98.1 37.5
113.1 72.8 26.9
171.1 92.4 32.0
166.1 97.4 40.5
163.9 100.2 26.4
165.9 102.6 37.8
214.9 114.1 40.1
202.4 133.1 32.8
227.5 135.0 44.2
224.9 152.9 38.7
231.1 153.2 47.7
88.5 52.1 19.2
49.2 31.0 10.8
71.2 49.4 14.9
84.1 50.0 10.6
27.0 14.9 5.7
130.4 85.2 35.1
151.5 95.1 23.3
171.5 96.2 25.3
164.4 93.5 37.9
183.5 118.4 50.6
199.2 126.9 31.5
238.5 136.1 35.2
132.9 69.3 21.5
131.1 76.6 28.2
176.1 91.9 28.6
172.5 102.8 35.2
185.4 110.9 30.3
163.9 100.4 45.2
230.0 121.9 38.0
226.8 123.8 36.1
235.1 136.8 33.9
237.8 128.5 60.3
242.1 134.8 63.5
94.1 59.6 15.6
90.8 51.0 21.6
50.9 31.5 14.1
77.4 53.2 19.3
196.6 111.6 46.8
184.9 119.5 39.5
179.4 123.4 45.2
191.2 106.4 31.2
191.2 106.3 31.2
199.0 132.4 35.2
217.4 113.1 50.8
207.2 143.6 42.0
235.1 124.7 35.1
97.9 56.4 14.3
92.8 60.0 24.9
80.6 42.1 14.0
118.9 71.0 18.4
104.8 67.4 22.9
133.1 68.3 27.0
134.0 75.5 27.7
156.2 97.6 26.0
195.5 120.8 33.9
195.6 121.1 33.9
175.5 101.2 25.9
197.1 125.9 34.5
229.6 126.8 58.0
245.5 138.5 53.3
245.9 138.9 53.9
246.1 138.0 53.6
245.6 138.5 53.6
32.3 19.1 7.8
28.1 19.1 5.2
27.1 15.0 6.1
186.8 95.5 40.4
159.6 94.8 20.0
175.2 101.2 37.5
208.5 110.8 39.5
224.2 122.1 39.5
207.8 111.6 32.7
214.1 112.6 39.8
210.9 123.4 52.0
220.2 125.4 39.7
231.5 130.6 52.8
97.2 52.3 15.1
63.5 37.3 17.6
72.5 47.5 12.9
182.9 97.4 46.1
104.5 65.8 26.8
108.3 65.2 29.1
136.2 79.2 37.7
174.9 102.8 28.0
181.1 120.4 41.8
195.0 107.9 31.4
183.5 102.2 49.4
149.6 104.3 30.8
162.4 107.2 44.4
220.8 117.8 46.3
218.1 122.8 33.9
208.8 143.5 39.4
229.9 129.9 63.9
241.0 140.4 61.7
251.2 133.9 53.5
84.9 49.2 23.1
79.4 48.8 16.4
80.6 50.2 15.6
181.0 95.2 41.1
155.1 88.5 21.0
154.4 96.0 37.6
154.5 95.9 37.6
174.0 105.2 38.4
186.8 117.4 36.6
180.8 103.9 47.5
158.0 104.2 40.0
166.6 101.9 27.1
230.5 131.2 48.5
251.8 130.9 56.3
89.8 54.1 24.2
122.1 76.2 18.7
126.2 79.6 34.2
156.1 87.4 22.8
157.8 88.6 30.8
191.6 119.3 38.3
167.8 104.4 35.6
216.1 124.8 36.1
216.1 124.9 36.2
206.2 140.0 38.4
210.8 146.9 41.3
221.5 138.1 35.4
221.4 138.2 35.5
227.8 125.9 43.2
96.1 63.1 23.3
95.8 65.4 25.2
43.3 27.2 10.6
83.7 49.7 10.6
15.3 9.1 4.3
123.4 73.6 19.6
155.2 87.9 22.0
175.0 96.8 24.3
164.4 96.2 44.2
167.6 101.6 23.3
213.6 121.9 49.5
204.9 139.5 37.5
215.2 129.8 32.2
222.4 138.1 33.9
219.2 139.1 33.5
216.1 137.9 47.8
235.4 132.4 30.3
173.5 96.0 46.6
183.8 113.8 33.8
165.4 105.9 38.4
206.2 111.6 36.7
227.5 124.6 43.8
225.0 124.4 38.1
226.2 145.0 32.5
239.2 146.4 69.4
98.1 57.4 22.8
93.2 61.8 16.9
92.2 55.7 26.5
92.2 55.7 26.5
116.9 78.5 29.1
116.8 78.6 29.2
135.6 93.5 26.9
126.2 77.4 26.7
141.1 83.9 26.6
158.6 99.8 22.3
163.9 96.6 24.2
163.9 96.7 24.2
163.9 96.6 24.2
163.9 96.6 24.2
164.1 96.8 24.4
216.8 139.4 32.2
214.1 130.0 47.9
227.4 144.9 33.5
90.8 51.1 22.3
50.8 33.0 7.8
20.6 11.3 2.8
183.9 100.0 39.2
128.8 74.4 20.4
139.1 90.6 27.3
142.0 78.1 29.8
173.4 118.7 40.6
224.2 128.9 37.4
207.5 140.1 38.3
242.6 143.8 69.2
55.5 31.0 12.3
120.6 73.4 29.3
117.1 79.8 28.1
174.1 103.6 29.1
193.0 110.6 43.6
183.8 104.7 37.2
195.0 111.9 25.9
193.9 132.2 48.2
161.5 103.8 41.7
222.0 122.7 45.8
201.8 108.1 50.8
206.9 137.8 52.6
206.9 137.5 52.7
86.6 54.6 23.5
97.7 65.1 22.4
70.6 48.2 14.1
52.2 32.8 10.7
78.6 51.8 13.2
118.9 72.7 30.2
174.4 103.8 22.2
188.9 111.6 30.4
193.2 119.1 47.9
131.4 77.3 19.0
155.4 94.6 28.6
194.0 121.3 34.3
234.9 140.0 47.4
92.4 61.4 15.0
89.9 58.7 16.7
82.2 47.5 10.3
82.2 47.5 10.3
100.5 65.8 25.7
122.6 74.4 25.5
133.8 68.2 26.6
191.8 106.6 28.3
176.9 101.0 40.2
198.4 120.4 40.6
192.5 117.9 35.1
206.4 128.5 33.5
240.2 147.8 40.1
227.1 147.2 40.6
243.0 138.0 65.6
94.1 60.7 13.8
107.8 57.6 23.1
136.1 79.1 28.3
147.1 75.9 31.1
192.0 114.9 45.3
189.8 108.8 29.1
201.8 108.2 50.8
208.4 142.9 40.5
226.2 119.9 43.2
239.8 128.8 35.4
235.8 132.2 53.8
99.7 68.1 17.2
183.0 99.6 37.4
150.1 98.0 25.7
196.0 117.2 28.6
196.1 117.2 28.5
154.4 101.8 25.0
165.5 100.9 25.5
168.2 101.2 30.4
236.1 136.0 39.6
239.4 139.1 35.1
226.0 126.0 51.2
95.8 58.5 20.4
93.9 61.4 25.5
43.6 25.1 11.5
58.7 36.8 10.7
77.7 44.1 10.6
83.1 49.8 11.2
124.2 69.4 34.0
119.5 79.9 28.6
161.6 92.6 34.6
169.5 95.8 26.1
191.8 108.6 51.0
223.9 120.6 43.3
219.4 134.9 30.7
209.9 134.5 29.7
207.8 134.2 49.1
227.5 118.5 40.8
244.0 140.4 48.6
92.1 62.2 19.5
96.1 64.6 25.5
108.0 58.8 19.1
149.2 95.1 21.0
149.2 95.1 20.9
160.0 91.2 32.7
193.1 102.6 38.5
181.9 102.2 25.7
196.5 129.6 29.4
189.1 128.2 48.8
159.2 103.6 40.9
166.6 106.7 35.2
168.8 101.8 42.0
227.4 120.3 40.2
246.4 127.9 40.2
233.9 131.9 54.8
87.4 47.1 16.5
92.9 61.6 17.5
179.6 95.1 41.9
104.1 69.0 17.0
138.6 77.4 22.8
139.2 90.2 26.6
166.0 84.8 35.5
196.8 111.4 37.2
219.4 140.8 40.8
210.1 139.5 56.1
240.8 129.9 34.9
226.6 150.4 33.8
87.1 47.5 20.4
87.8 58.2 21.5
52.8 29.9 11.1
69.4 39.2 10.3
51.0 31.7 14.5
51.0 31.7 14.4
51.1 32.2 14.7
51.1 31.7 14.5
50.9 31.5 14.5
51.1 31.3 14.3
50.8 32.4 14.5
51.0 31.7 14.5
81.3 45.8 20.9
81.1 45.6 17.8
175.8 99.6 43.6
106.4 60.1 14.2
140.6 74.4 25.3
153.8 91.6 43.3
180.0 116.6 40.5
220.0 144.9 43.6
218.9 145.2 61.1
228.2 126.2 35.3
238.2 132.0 61.9
243.2 135.0 58.1
93.9 60.9 21.5
79.8 50.2 21.3
79.6 50.1 21.3
173.0 97.3 44.2
163.9 86.9 37.2
162.2 94.2 41.3
158.6 101.1 20.9
226.5 124.4 36.8
231.8 141.1 31.7
95.1 57.2 18.2
99.2 68.5 21.8
92.9 59.8 25.8
92.9 59.9 25.9
64.4 37.7 13.8
79.2 51.4 18.5
176.5 108.6 32.0
189.2 113.8 46.3
162.1 103.9 40.8
200.9 133.2 34.9
207.9 141.8 53.2
235.9 135.9 40.6
97.3 62.8 18.8
131.9 77.6 18.5
137.0 78.4 32.3
196.5 112.9 34.0
221.8 119.3 42.9
221.0 125.1 38.2
224.4 127.9 51.3
226.6 124.5 42.1
233.9 130.8 30.4
228.1 140.5 50.1
243.8 159.4 37.3
93.3 62.2 15.4
119.0 78.2 22.3
122.2 78.9 25.8
173.8 97.4 28.6
178.2 105.2 30.9
191.4 122.4 36.1
207.0 123.2 56.1
213.9 135.1 29.7
236.0 143.0 47.9
86.3 60.3 18.3
85.5 57.7 16.5
95.1 62.5 18.8
32.0 19.6 8.3
147.1 84.3 41.7
136.9 75.7 26.1
187.6 116.6 43.1
182.8 109.8 34.9
175.8 100.6 37.7
205.6 113.6 39.0
203.1 131.0 44.8
227.5 124.8 51.6
234.8 141.5 63.0
233.2 152.5 48.7
234.8 160.1 53.2
85.1 59.5 17.6
81.9 45.4 19.8
121.9 74.8 25.4
132.0 73.3 35.8
151.4 88.4 39.3
175.8 96.6 29.7
175.1 104.6 37.1
155.2 100.2 40.6
239.4 137.6 53.5
87.7 46.9 16.5
94.2 60.8 20.8
94.2 60.8 21.0
94.2 58.6 25.5
105.9 69.7 21.2
160.1 91.8 24.0
150.8 80.1 35.2
174.6 94.4 29.5
175.0 94.9 29.7
175.0 94.8 30.2
174.5 95.0 30.2
163.4 87.1 25.5
192.4 100.6 36.9
193.0 131.2 38.1
210.4 107.9 40.3
210.6 120.7 35.8
218.8 146.2 33.3
233.6 133.1 46.2
245.6 143.6 47.3
244.1 151.6 39.0
89.2 58.6 24.8
87.6 50.8 11.7
120.4 72.6 18.1
123.6 80.6 31.1
117.7 77.5 30.3
154.9 91.2 21.9
169.1 87.5 34.4
187.4 103.9 38.3
191.2 108.1 50.6
164.1 105.0 43.0
164.0 105.1 43.0
226.5 123.8 37.0
226.6 123.7 37.0
236.4 147.2 45.6
93.6 51.8 13.1
63.9 37.1 10.4
137.1 80.2 23.9
138.2 94.5 26.4
174.9 101.4 37.0
189.1 114.2 30.6
192.2 113.1 44.5
180.6 107.1 49.7
167.1 106.8 43.6
214.6 129.8 33.5
236.8 124.2 36.3
229.9 125.9 36.6
230.9 152.4 43.8
85.1 58.8 16.1
64.9 38.9 13.5
65.9 39.7 12.7
82.5 49.7 16.6
111.8 70.4 16.8
