446.2 252.2 80.2
426.2 255.0 85.1
438.8 279.0 69.8
451.5 234.8 81.4
450.8 249.8 94.1
450.8 249.8 94.1
467.0 265.5 80.1
432.0 285.5 99.7
454.8 259.5 115.9
88.9 48.1 13.7
88.9 48.1 13.5
89.0 48.1 13.8
88.8 47.8 13.8
85.2 54.8 21.1
85.1 52.5 14.6
46.8 26.1 7.4
77.9 48.7 14.5
123.5 66.8 31.0
125.1 74.7 15.6
134.8 76.9 20.6
137.6 92.0 37.1
190.0 113.8 46.2
182.8 115.5 36.2
179.6 116.6 36.1
227.1 123.8 46.1
241.1 133.9 65.2
262.8 145.8 38.7
253.5 135.8 63.1
255.6 171.1 41.0
255.5 171.0 41.0
255.6 171.1 41.0
256.0 169.8 41.2
255.0 171.4 40.9
255.5 170.9 40.6
255.4 170.4 41.9
255.8 170.6 41.1
255.5 171.1 41.1
255.6 171.2 40.8
255.4 171.6 41.1
255.4 171.8 41.4
255.8 172.2 40.5
255.1 170.1 42.0
255.6 171.6 41.2
256.2 170.8 41.4
255.8 171.5 41.0
255.8 171.0 41.1
256.0 170.8 40.4
255.5 170.1 41.9
255.5 171.5 41.2
270.5 153.1 43.6
260.8 160.6 44.7
260.2 167.1 48.8
402.8 246.0 63.8
417.8 247.6 58.7
412.2 233.8 62.6
409.2 232.0 86.6
418.5 251.2 58.8
410.8 253.1 52.1
415.2 266.2 88.6
405.2 254.8 92.4
423.0 281.0 88.4
414.8 277.0 96.1
442.0 228.2 98.5
441.5 285.2 90.1
441.8 291.2 91.5
473.0 243.2 81.3
451.0 234.9 92.2
450.8 235.0 92.3
451.2 234.8 92.2
451.0 235.1 92.2
458.2 273.8 64.9
464.0 261.5 83.0
455.0 251.0 82.8
452.5 255.1 89.7
402.8 241.5 100.4
407.5 249.0 113.3
416.2 274.2 104.9
420.2 278.2 104.0
440.0 242.6 101.1
430.8 262.2 119.9
428.5 292.8 110.2
441.5 298.5 105.0
452.5 264.0 110.4
472.8 286.2 69.4
462.0 293.0 64.0
469.5 293.2 66.5
456.0 287.8 88.1
456.2 288.0 87.9
456.2 294.2 78.4
478.2 298.0 60.5
481.5 282.5 71.9
481.8 288.2 80.6
472.2 254.2 102.4
470.0 266.0 101.5
473.0 257.0 110.0
475.0 257.2 112.3
475.0 257.5 112.6
471.8 273.5 128.0
458.5 290.8 113.9
479.2 259.0 121.6
492.0 262.5 103.6
492.2 262.5 103.6
491.8 263.2 103.2
492.2 262.2 103.8
492.0 262.2 103.5
491.8 263.5 103.5
491.5 261.5 104.1
500.2 257.8 103.2
476.8 286.2 124.9
498.2 296.5 112.7
499.5 292.2 103.6
488.8 284.0 128.6
478.0 305.0 81.6
478.2 305.0 80.9
482.8 316.2 79.2
486.0 312.2 96.8
474.8 303.8 125.2
492.0 310.5 112.1
498.5 314.2 123.9
498.5 314.0 123.4
498.8 323.8 112.8
484.5 319.8 111.9
482.2 328.2 114.4
506.2 267.0 97.2
515.0 300.5 72.1
500.8 284.5 113.3
519.5 293.5 105.4
531.0 272.5 109.2
533.5 289.5 104.4
533.0 298.0 109.9
506.5 318.8 79.9
502.0 307.2 92.6
505.0 325.5 79.8
514.5 320.8 95.7
516.0 330.2 88.9
534.5 301.0 99.1
501.8 320.0 141.2
296.5 175.0 74.7
288.2 187.8 54.8
298.5 189.0 81.1
307.0 162.1 66.1
316.0 164.5 70.3
307.5 198.4 47.6
316.0 184.0 75.4
316.0 183.9 75.2
330.2 172.1 78.6
331.0 180.9 58.8
338.2 177.9 69.0
341.2 192.5 67.1
333.0 188.8 80.6
338.8 182.4 80.8
360.8 197.5 59.9
326.5 209.1 79.8
343.8 228.8 65.4
343.8 228.8 65.4
328.2 225.8 72.1
364.2 221.1 67.8
352.0 210.2 96.2
361.5 221.9 84.9
366.5 240.1 55.2
365.2 237.8 98.3
365.8 251.5 88.6
389.8 201.4 83.2
374.5 226.4 85.4
405.0 226.0 72.9
399.2 229.2 111.2
537.5 289.0 133.6
551.0 281.0 105.7
549.0 304.5 99.4
553.0 304.2 92.7
553.5 362.2 90.6
572.5 348.2 94.1
596.5 320.5 96.8
581.5 317.5 86.1
591.0 325.2 95.5
584.0 327.0 98.6
532.0 299.5 145.8
528.5 356.5 120.1
569.5 372.8 142.0
592.0 330.2 100.9
591.5 330.5 100.9
592.0 330.0 100.7
591.0 329.5 101.2
592.0 330.2 100.9
591.5 330.2 101.2
591.5 331.0 102.0
592.0 329.2 100.9
589.5 366.0 103.3
582.0 353.8 133.1
575.5 363.8 136.8
582.5 363.2 138.2
574.5 354.5 140.9
719.5 402.5 129.0
665.0 356.5 172.8
672.0 392.5 109.3
699.5 391.5 145.0
689.0 402.8 98.2
643.0 406.5 160.4
637.5 431.8 138.5
648.0 441.8 140.6
640.0 434.2 151.5
675.0 420.2 136.9
659.0 448.0 121.4
652.5 446.5 165.4
668.5 450.5 158.8
703.5 396.5 194.6
696.0 443.2 91.2
688.0 411.2 108.6
598.5 346.5 147.6
594.0 364.8 108.8
596.5 360.2 119.1
597.0 360.0 119.1
596.5 360.8 118.9
596.5 360.0 119.2
596.5 360.5 119.1
596.5 359.2 119.5
596.5 373.5 158.4
599.0 378.5 106.4
582.0 393.0 122.1
610.0 341.8 87.1
621.0 346.2 97.9
621.0 345.5 98.2
636.5 349.8 98.2
612.0 345.5 117.6
602.5 348.0 161.6
608.5 356.2 152.8
600.5 349.2 155.6
616.5 373.8 167.5
609.0 376.2 116.9
613.0 393.0 124.6
604.5 395.2 149.5
634.5 335.2 104.7
638.0 336.5 121.8
641.0 362.8 110.9
632.0 369.5 138.6
640.5 361.5 142.5
642.5 354.2 167.6
640.5 377.8 145.8
630.0 384.2 155.2
658.0 369.5 109.1
590.5 362.2 128.5
586.5 366.5 134.5
584.5 363.8 158.4
595.0 354.2 157.4
591.5 384.0 102.3
576.5 398.2 132.2
609.5 349.5 94.9
609.5 349.5 95.0
604.5 363.0 87.1
625.5 364.8 77.2
617.0 327.8 109.1
616.5 350.8 103.1
621.0 357.8 174.1
621.0 357.8 174.1
606.5 394.0 113.4
629.5 332.5 129.8
634.0 333.0 155.6
634.0 359.8 113.8
643.0 378.8 181.1
661.0 345.0 113.7
660.5 344.8 113.2
670.0 357.8 102.6
654.5 349.5 160.5
600.5 401.0 147.9
631.0 407.8 127.6
631.0 407.8 127.6
631.0 408.0 127.8
292.2 174.5 55.8
290.2 169.1 70.9
281.8 187.4 50.1
319.5 172.8 44.7
300.5 167.9 39.4
307.8 161.9 66.5
303.0 169.4 78.6
312.8 195.1 70.4
318.5 189.6 51.3
329.0 173.2 73.6
331.0 182.2 46.7
337.0 178.4 81.2
333.0 196.0 94.0
361.0 199.1 67.2
357.5 196.8 56.8
351.2 191.9 53.3
379.5 195.1 73.8
376.5 197.5 62.8
310.2 205.0 84.3
345.0 222.1 52.7
349.5 218.6 83.9
354.2 205.2 68.1
372.2 205.9 89.6
372.2 205.9 89.6
359.2 223.9 90.4
359.2 243.8 86.4
394.0 224.2 96.6
378.5 225.9 62.5
397.2 229.1 84.1
377.8 250.1 81.4
381.5 260.5 64.3
378.8 258.5 72.8
404.8 210.1 69.7
408.0 232.2 61.7
408.0 232.2 61.6
400.5 228.1 90.4
88.2 57.5 23.1
98.5 56.4 23.8
45.3 29.8 7.3
82.2 44.0 18.0
181.4 99.0 40.2
113.1 70.9 15.4
141.9 72.5 27.6
148.0 90.6 21.0
170.6 94.0 32.6
160.6 84.4 32.1
183.2 120.3 51.5
196.6 132.5 36.9
166.2 100.5 24.9
224.1 122.2 39.2
223.9 146.2 43.2
209.6 131.1 51.8
209.6 131.0 51.7
207.5 138.0 53.7
217.4 148.4 51.8
227.2 120.6 53.9
249.5 128.0 47.7
234.6 129.1 57.8
243.2 132.5 59.1
261.2 140.8 65.0
261.8 151.0 39.7
253.6 152.9 35.8
256.8 161.8 46.5
256.5 161.9 46.3
252.1 162.6 65.6
252.0 162.6 65.7
255.0 155.5 60.4
270.8 176.4 63.8
266.5 178.6 51.5
287.2 150.0 45.8
281.2 167.2 50.2
674.0 393.8 97.1
672.0 365.0 112.5
669.5 380.8 118.8
671.0 393.0 192.9
675.0 367.0 115.5
675.0 367.0 115.4
675.0 367.0 115.5
675.0 367.2 115.8
686.0 360.0 128.4
680.0 355.0 137.4
682.5 386.0 120.5
683.0 391.5 176.0
633.5 411.0 147.5
645.5 441.2 118.4
646.0 448.2 138.5
666.0 414.0 142.9
670.0 411.0 176.6
661.5 442.8 144.2
670.0 447.8 168.1
694.0 423.5 117.6
694.0 423.2 117.6
682.0 418.8 144.2
692.5 401.8 143.5
682.5 411.5 148.6
688.5 409.5 186.0
683.0 415.8 198.8
683.5 438.5 101.1
693.0 443.5 122.9
696.0 428.8 155.8
721.0 371.0 123.6
712.5 371.5 142.5
720.5 385.2 132.9
716.5 393.5 140.9
716.5 393.5 140.9
727.0 391.8 104.1
542.5 321.5 93.1
528.0 354.0 80.2
535.5 358.2 94.0
553.5 306.0 80.2
569.0 358.0 88.3
563.0 369.5 99.2
570.0 355.0 83.1
595.5 312.2 93.8
585.5 333.2 76.1
537.0 313.8 122.4
525.5 322.8 113.6
534.0 344.5 111.5
531.0 327.8 115.6
563.0 356.0 133.6
573.0 348.5 126.2
559.5 382.8 122.1
559.5 379.5 127.7
586.5 349.8 109.1
587.5 355.8 108.3
466.8 271.8 80.8
485.2 256.2 97.2
445.2 293.8 122.6
458.0 284.8 113.9
472.5 296.8 131.4
473.2 287.8 129.0
477.5 284.0 118.4
480.0 291.0 115.4
451.5 302.5 88.1
494.0 323.2 71.5
479.2 305.8 86.2
496.8 305.0 97.2
489.8 315.8 99.8
490.8 323.8 112.1
490.8 324.0 112.9
490.8 324.0 112.3
490.8 323.8 112.1
493.8 301.2 120.1
490.0 329.5 117.7
505.0 295.5 95.6
507.2 282.5 130.6
538.0 283.8 113.9
530.5 278.5 112.2
532.5 294.5 110.3
515.5 321.0 78.8
505.5 330.8 90.4
538.0 302.8 81.1
502.2 323.8 104.6
512.5 323.5 110.8
509.0 316.5 142.6
506.5 338.0 115.0
397.2 265.2 98.0
423.5 216.6 78.3
413.0 219.9 93.7
416.2 222.0 77.3
419.0 232.6 64.4
420.2 242.4 72.9
415.0 255.2 75.5
417.8 282.5 68.1
423.2 282.5 92.5
420.2 278.5 96.9
447.0 274.5 64.1
424.8 266.0 73.1
425.0 275.0 77.9
448.5 259.0 76.9
443.5 283.8 79.2
462.2 254.0 80.4
470.8 253.5 77.9
460.0 283.2 62.6
451.2 283.0 79.6
420.2 233.8 101.1
422.8 258.2 115.7
414.8 275.0 104.6
422.5 271.2 109.4
440.8 243.0 101.6
440.0 242.5 101.6
433.0 241.4 105.9
428.8 276.8 120.7
466.0 254.8 103.6
452.2 264.8 102.3
452.8 256.8 125.5
614.5 396.0 114.8
643.5 376.0 117.1
603.5 413.2 149.4
594.0 370.8 84.7
594.0 370.8 84.8
597.0 407.2 156.1
605.0 351.5 82.3
598.5 373.0 141.1
621.5 333.5 111.5
599.5 347.5 132.2
611.0 338.2 129.0
618.0 348.8 157.4
606.5 354.0 117.1
616.5 384.5 103.8
600.5 377.8 162.8
636.5 337.0 105.2
627.0 360.2 152.6
626.0 394.0 114.8
656.0 369.2 159.4
610.5 405.5 110.9
605.0 414.5 156.5
635.0 407.0 106.2
694.0 379.0 115.2
684.0 394.2 132.0
654.5 409.2 92.2
637.0 413.0 168.9
646.5 421.8 155.0
646.5 421.8 155.0
640.0 445.0 128.4
638.0 445.8 149.0
674.5 421.8 166.5
674.5 421.8 166.6
652.0 438.2 151.4
654.0 439.8 151.9
665.5 433.5 156.2
690.5 414.5 114.5
703.5 374.2 166.9
724.0 392.2 115.5
702.0 378.8 131.8
704.5 406.5 133.8
291.2 194.5 52.3
314.0 178.1 63.7
322.2 188.6 75.6
324.2 204.0 60.6
382.0 214.9 61.7
405.2 235.4 55.9
315.0 173.4 63.5
317.2 164.6 69.9
311.2 178.4 49.1
312.5 185.8 39.1
320.0 192.2 40.5
306.2 199.6 66.9
314.5 187.4 79.9
337.8 175.6 72.7
350.2 182.9 60.7
330.2 180.8 61.6
324.0 208.5 58.8
316.5 204.9 90.1
336.5 208.6 74.9
335.2 226.9 73.0
394.2 224.4 77.7
419.2 234.5 63.3
415.8 282.0 67.5
465.0 262.8 69.6
454.0 258.0 76.9
416.2 232.4 99.9
415.5 240.9 103.8
414.5 240.8 107.1
413.5 273.2 105.8
413.5 272.8 105.8
440.8 241.8 114.3
438.0 258.2 126.0
420.8 246.2 57.0
436.0 241.4 68.3
442.8 232.9 94.8
429.5 260.0 53.0
468.0 247.6 99.4
459.0 265.0 77.6
468.5 258.8 86.0
461.5 256.2 120.4
471.2 295.8 71.1
465.5 282.2 69.8
472.5 289.5 77.8
464.2 294.2 92.5
476.8 257.2 88.7
474.0 259.2 109.4
463.0 265.0 110.1
474.5 279.5 101.6
477.5 254.1 106.2
479.5 277.5 120.8
493.5 282.5 127.2
485.0 308.5 94.2
484.8 334.2 97.9
469.0 310.0 124.3
469.2 304.0 128.9
475.0 310.2 121.8
475.0 310.0 121.9
487.8 309.5 106.6
487.8 309.0 106.3
518.5 293.2 75.3
505.8 289.8 81.5
523.5 268.8 103.6
513.5 267.5 112.5
500.8 284.5 113.0
529.0 284.5 103.6
518.0 318.0 90.9
516.5 312.8 110.3
517.0 312.8 109.8
499.5 325.8 120.4
536.0 341.5 91.0
526.5 344.8 87.4
540.0 370.0 95.4
540.0 370.2 95.6
558.0 356.8 88.6
563.0 363.8 95.4
563.0 364.0 95.6
577.5 323.8 97.5
575.5 341.5 81.1
583.5 340.8 89.4
579.5 362.2 84.5
577.5 377.2 84.9
511.5 338.5 116.8
508.0 347.8 121.2
523.5 338.8 103.9
530.0 327.8 99.9
538.5 358.8 145.0
568.0 341.2 107.3
568.5 336.5 131.0
569.0 336.5 131.1
576.0 357.2 166.8
94.2 61.3 25.4
95.2 64.6 25.1
76.9 47.8 14.5
81.8 54.4 14.9
108.4 57.2 21.1
124.8 69.8 33.1
134.6 89.9 28.6
132.4 91.6 31.1
159.6 95.2 20.0
195.4 119.6 42.0
197.9 133.0 49.8
209.1 127.1 42.9
229.9 122.8 55.9
244.6 164.4 39.9
249.4 159.6 35.9
242.6 166.6 55.1
249.2 170.8 60.8
249.2 170.9 61.1
250.6 144.1 67.8
258.8 146.6 62.8
256.0 161.4 46.8
256.2 152.4 31.5
267.2 171.4 37.8
270.5 152.1 61.4
268.0 182.0 67.1
284.5 167.5 44.0
279.0 171.8 52.2
290.0 158.6 72.1
284.5 175.8 54.2
78.2 52.0 12.2
103.8 67.5 23.2
133.9 70.4 23.8
156.2 95.4 23.1
153.6 86.6 23.2
167.8 85.6 32.0
171.5 111.5 48.3
177.9 115.1 41.4
187.2 118.7 45.2
197.8 128.1 41.4
152.4 102.9 24.7
152.4 102.9 24.7
221.2 117.2 49.5
221.4 116.9 48.8
221.2 117.1 48.8
225.2 124.3 37.7
239.9 149.6 36.2
226.2 136.9 33.5
232.9 128.6 57.2
244.1 167.1 63.3
252.1 131.6 56.9
252.0 144.5 66.8
250.9 138.2 65.6
272.0 146.9 52.2
260.5 169.5 47.1
257.0 167.5 42.6
257.0 167.6 47.9
267.2 163.6 56.4
258.2 153.9 66.6
261.2 153.4 55.0
278.2 144.0 51.6
287.2 156.4 76.7
707.5 439.8 97.4
704.0 447.5 92.4
707.5 426.5 183.8
594.5 393.8 95.6
580.5 395.8 98.0
599.5 357.0 105.2
580.0 394.5 100.8
617.0 317.0 131.1
622.5 374.2 156.0
635.5 339.5 102.4
627.0 342.5 101.7
637.5 397.8 127.3
630.0 393.2 171.6
660.5 377.0 115.6
650.5 380.0 152.5
604.5 402.8 103.3
601.5 403.5 118.1
601.5 403.5 118.1
601.5 403.0 117.9
601.0 403.0 118.4
601.5 403.5 118.1
601.0 403.5 118.0
601.0 403.2 118.4
621.5 426.2 138.5
625.0 409.8 161.6
289.2 174.6 46.6
297.2 153.9 60.1
290.2 177.6 43.4
281.8 182.4 53.2
286.2 193.1 58.5
295.2 183.9 79.3
309.0 157.8 66.3
300.5 165.2 59.2
310.8 171.5 73.2
310.0 168.9 76.5
302.5 181.2 56.5
303.8 186.5 55.2
328.0 183.4 49.1
348.5 182.1 62.9
333.5 182.4 49.9
351.5 190.5 54.0
313.2 208.9 50.4
308.8 205.2 55.9
338.2 220.0 93.8
338.0 220.1 93.9
357.0 209.1 69.4
356.8 209.0 69.8
367.8 218.6 58.4
352.8 224.9 94.4
352.2 213.0 91.0
355.2 243.1 67.2
369.5 235.1 93.1
382.2 212.8 51.0
399.0 211.6 70.4
392.8 223.4 68.6
383.0 229.1 54.7
394.8 232.1 62.2
397.8 227.1 84.1
398.5 228.1 84.0
397.8 227.0 84.5
397.8 227.1 84.1
383.2 243.1 75.2
383.2 243.2 75.2
400.2 235.9 63.7
464.0 274.0 75.7
494.5 254.6 90.8
474.0 261.8 102.1
487.0 297.2 129.9
487.5 290.0 133.1
455.2 311.8 92.8
484.5 328.2 98.6
484.5 328.2 98.6
484.0 328.0 98.8
491.0 306.8 110.2
497.0 341.0 110.0
518.0 298.5 69.0
520.0 278.0 88.7
531.5 281.2 96.2
507.2 286.5 101.8
536.0 285.5 111.9
505.0 304.2 120.9
504.5 340.5 125.4
649.0 395.0 186.8
694.0 379.2 115.5
690.0 393.8 155.5
690.5 393.8 155.4
687.0 383.5 155.8
686.0 397.0 189.9
669.5 399.2 85.2
699.0 437.8 92.5
635.5 410.0 155.8
663.5 443.2 118.6
662.0 441.2 135.6
662.0 441.5 135.8
653.0 437.0 124.9
669.0 449.0 170.6
666.5 451.0 169.4
672.5 455.0 166.2
689.5 412.2 106.7
699.0 409.8 107.9
682.0 419.2 171.4
696.5 438.2 108.0
677.5 453.8 103.1
678.5 464.8 132.8
698.0 373.0 176.8
720.0 372.8 140.1
701.0 361.2 157.8
701.0 433.5 117.4
556.5 288.8 111.2
542.0 324.8 66.7
537.0 340.2 87.8
525.5 342.5 90.2
526.0 344.2 91.6
543.0 335.8 96.9
560.0 318.5 85.1
552.0 305.2 97.1
552.0 347.5 90.1
589.0 315.8 92.7
584.0 345.0 88.9
574.5 356.5 92.3
517.0 345.8 111.5
517.0 345.8 111.5
514.5 339.5 109.6
519.5 351.5 135.2
535.0 313.8 141.5
547.0 331.8 113.3
536.0 354.8 145.9
553.0 308.5 128.6
552.0 335.2 107.7
551.0 341.2 123.8
571.5 342.8 110.2
573.5 329.5 127.8
561.5 388.8 102.7
598.5 314.5 145.6
580.5 317.8 129.1
583.0 338.8 165.8
587.5 354.0 107.9
607.5 332.8 95.9
396.2 260.8 86.3
414.0 239.4 86.6
414.2 239.5 86.6
423.2 269.0 73.9
428.5 241.5 65.7
430.8 261.2 82.8
428.5 252.9 84.1
413.0 242.4 111.6
407.0 242.0 115.1
410.2 246.4 102.7
419.2 239.9 116.1
421.0 268.8 108.0
430.5 232.6 108.0
447.8 249.4 109.7
443.5 254.8 114.3
447.5 274.0 124.8
450.8 265.0 113.2
684.0 359.5 105.1
680.5 371.0 121.1
683.5 371.2 144.1
695.0 364.8 160.1
681.0 391.2 113.1
686.0 390.0 122.9
698.5 395.8 149.4
695.5 387.0 171.5
690.0 384.8 178.9
672.5 420.8 96.1
677.0 435.0 91.9
643.5 428.5 171.1
660.5 406.2 167.0
660.5 406.5 167.4
661.0 442.8 178.2
661.0 442.8 178.2
661.0 443.0 178.1
700.0 419.8 124.5
676.0 413.8 115.8
694.5 421.0 116.8
680.5 403.8 148.1
692.0 401.8 136.2
679.5 423.0 160.2
675.5 422.8 195.1
676.5 458.0 110.6
723.0 370.0 143.2
704.0 373.5 147.4
719.0 375.0 153.0
703.5 411.0 128.1
700.0 438.5 119.3
730.5 378.2 152.6
280.2 174.0 81.2
294.2 179.8 47.6
298.5 202.0 68.0
295.2 203.9 69.6
299.2 204.8 71.4
314.8 170.4 78.1
300.0 180.6 54.4
305.5 181.1 54.1
319.8 188.6 73.3
303.0 191.1 75.6
314.5 196.9 88.6
314.5 197.1 88.2
314.5 196.9 88.4
314.8 197.0 88.6
347.5 184.8 58.7
339.0 189.2 65.6
365.5 196.2 67.6
365.5 193.6 70.3
309.2 200.8 70.7
323.8 212.5 57.9
321.0 213.5 51.7
332.8 220.0 62.3
358.8 200.6 72.4
358.5 200.5 72.2
358.8 200.6 72.6
358.8 200.8 72.4
350.8 211.4 66.1
360.8 214.0 68.8
356.5 227.9 98.2
358.0 241.8 85.7
354.0 236.8 86.5
394.2 207.9 88.8
398.2 234.9 65.0
378.8 241.6 78.2
378.8 241.6 78.2
389.5 232.0 76.6
390.0 252.1 91.6
393.8 267.0 83.7
395.8 261.0 97.5
397.2 255.4 91.6
398.2 239.5 105.4
422.2 246.5 81.6
414.8 242.9 86.2
415.5 270.2 66.6
410.2 265.2 67.8
410.2 265.2 67.7
410.0 265.2 67.6
410.0 265.2 68.3
410.0 264.8 68.2
424.8 251.2 83.8
432.2 222.9 79.2
446.2 229.5 95.2
438.8 269.0 69.0
435.8 252.4 82.2
437.5 279.5 58.2
428.2 277.0 67.0
425.5 285.5 83.6
470.2 256.5 87.7
470.2 256.5 87.6
454.2 257.0 78.5
463.0 256.8 96.6
410.0 245.9 113.8
402.5 237.4 115.2
438.5 253.1 108.4
454.8 242.1 101.7
460.2 247.2 110.1
91.9 58.9 25.3
93.9 62.3 25.7
91.7 58.8 25.8
69.3 46.8 14.4
180.0 99.4 41.8
136.4 71.6 30.9
159.5 100.0 22.9
154.2 97.1 41.9
171.4 94.3 38.6
198.2 102.3 35.9
163.6 100.8 30.4
208.9 123.1 59.1
219.6 128.4 38.3
219.6 140.1 30.2
207.1 136.5 52.0
221.5 152.6 39.2
228.9 125.6 56.5
229.9 130.2 51.0
226.5 150.6 34.6
225.1 155.8 51.4
255.8 149.1 69.8
267.2 168.0 39.0
273.8 175.1 65.1
261.8 181.9 50.2
274.2 184.4 67.4
565.0 295.8 116.5
529.5 343.5 96.6
543.5 330.0 95.1
547.5 366.8 97.4
594.5 336.5 91.2
587.0 372.5 80.5
522.0 320.8 140.6
529.0 342.2 114.1
538.0 345.5 104.4
539.5 361.2 129.9
539.5 368.0 142.1
547.5 382.0 106.6
556.0 341.2 101.0
565.5 345.5 104.7
572.5 356.2 165.9
595.0 338.5 100.2
598.0 327.8 138.0
609.0 341.8 85.6
465.2 273.2 72.5
471.2 293.0 73.4
466.0 294.2 60.8
473.8 296.5 75.2
462.2 295.5 77.9
462.0 295.2 78.1
487.5 278.5 75.8
466.2 270.2 124.3
468.5 316.2 80.1
485.8 308.2 64.1
469.8 308.8 100.2
498.5 306.2 107.6
483.0 330.8 105.5
507.2 263.2 112.6
525.5 267.5 103.1
522.5 269.5 100.1
506.8 317.5 79.2
510.0 323.5 95.6
510.2 327.2 95.9
507.8 314.8 143.2
587.0 399.2 99.1
587.0 361.0 151.8
613.5 371.5 90.5
613.0 391.5 97.1
607.0 365.2 175.9
617.5 396.8 118.9
607.0 383.8 119.4
610.5 391.8 117.8
617.5 389.2 150.5
617.5 389.8 150.2
617.5 389.2 150.4
637.5 333.2 106.6
638.0 345.8 103.5
629.5 346.0 109.6
639.0 347.5 145.1
634.5 381.8 104.0
634.5 381.5 103.9
652.5 337.8 130.6
662.5 365.8 131.2
600.5 410.0 140.6
94.6 60.9 20.5
92.7 51.9 13.1
73.4 43.0 13.9
81.7 43.7 17.8
184.6 97.2 38.5
100.7 51.9 19.5
135.4 69.0 27.0
145.8 91.6 22.7
133.5 80.7 36.9
127.7 84.4 29.5
137.1 90.2 28.4
156.6 99.6 37.0
171.9 107.9 27.8
197.8 103.7 44.3
214.4 141.6 38.4
248.0 135.9 47.8
245.5 134.5 58.9
240.9 137.9 51.7
271.5 148.0 53.5
250.1 156.4 66.2
262.0 172.6 62.9
272.2 168.1 78.0
280.0 145.9 53.6
276.8 155.8 48.2
286.2 159.0 57.1
294.5 160.5 59.6
287.0 165.2 76.8
289.2 198.2 54.5
301.5 160.9 61.0
317.5 167.5 64.1
317.8 167.4 64.2
323.2 164.9 66.3
310.2 194.1 47.1
320.2 184.6 69.0
339.5 186.5 64.9
339.5 183.4 72.1
359.5 183.0 74.2
361.2 194.6 51.0
360.8 194.6 50.6
364.0 195.1 71.8
353.0 192.8 72.4
381.5 195.5 81.6
313.8 213.2 57.5
313.8 213.2 57.5
318.2 222.0 64.1
319.2 209.6 82.9
342.2 217.8 45.5
335.8 220.0 64.2
327.8 201.9 84.3
338.2 205.8 83.0
340.0 221.5 83.5
366.8 245.8 66.5
350.5 229.6 91.0
380.5 204.2 62.6
393.0 219.5 74.1
393.2 219.9 74.1
376.5 244.4 71.1
376.2 244.6 71.2
376.8 244.1 71.2
387.8 245.2 80.6
387.8 245.2 80.6
392.0 244.5 104.3
403.2 242.8 58.7
698.0 452.5 104.1
697.5 452.0 104.4
698.5 452.8 104.3
697.5 451.5 104.2
697.0 453.2 104.4
698.5 452.2 104.0
699.0 451.0 103.4
698.0 452.5 104.1
680.5 453.5 165.8
659.5 392.0 137.2
677.5 395.8 150.2
638.5 415.0 139.8
643.0 424.2 158.9
630.0 429.2 117.7
648.5 437.2 147.1
669.5 408.0 184.4
654.0 437.5 152.8
662.5 448.2 150.8
657.0 447.0 162.9
674.0 446.2 179.9
670.0 450.0 124.4
685.0 405.5 106.2
696.5 436.0 105.9
683.0 446.2 123.3
716.5 373.5 132.8
714.5 374.2 136.2
714.5 374.2 136.2
711.0 395.8 144.6
708.5 402.5 154.5
708.5 402.5 154.5
552.5 289.2 88.2
551.0 298.8 136.0
522.0 332.0 99.1
523.0 308.8 149.8
510.0 341.5 123.9
517.0 353.5 133.2
535.5 334.2 104.6
533.5 329.8 115.9
538.5 338.5 140.2
536.5 354.8 144.8
536.0 354.8 143.8
574.0 340.5 160.2
562.5 369.5 102.6
564.0 359.5 152.1
571.0 385.8 122.9
584.5 304.8 108.2
580.0 366.2 116.3
593.0 354.8 111.2
593.0 354.5 111.0
577.5 355.8 134.1
575.0 397.0 111.2
615.5 337.8 86.1
604.5 353.5 81.2
609.5 385.8 94.1
620.5 378.5 97.3
636.5 384.5 91.2
631.0 399.0 84.6
614.5 328.5 113.4
620.0 351.0 102.1
619.5 350.8 102.2
603.0 365.8 116.8
604.0 365.2 132.6
605.5 366.8 148.8
605.5 366.5 148.9
601.5 387.5 147.2
605.5 395.5 154.1
629.5 323.8 140.9
631.0 341.5 107.7
634.0 347.0 137.5
625.0 339.5 146.4
631.5 351.8 122.8
629.0 361.0 118.2
641.5 358.5 135.9
626.5 376.5 130.4
653.0 332.8 128.9
641.5 400.8 83.6
641.0 400.8 83.4
614.0 402.2 121.3
471.8 256.2 93.2
460.8 289.0 74.4
458.8 297.2 81.7
492.5 266.8 82.6
465.0 257.2 117.2
461.8 277.0 122.6
451.2 280.8 123.5
469.5 296.8 135.6
485.0 285.2 105.4
485.2 285.5 105.6
499.5 284.5 134.9
462.0 312.5 96.4
477.8 305.8 94.4
466.2 310.8 123.8
482.0 311.8 115.3
482.0 311.8 115.3
493.2 305.5 130.1
534.0 289.0 97.4
513.5 269.8 105.8
504.5 306.2 72.2
508.0 322.8 88.3
503.5 319.8 99.3
515.5 301.8 121.3
415.8 234.0 65.1
417.5 244.2 78.8
423.8 241.8 89.4
406.8 258.5 83.4
404.2 258.8 80.2
425.2 239.8 55.9
427.2 247.9 83.8
429.5 244.2 96.6
436.8 230.1 90.8
435.5 227.1 99.1
460.0 272.0 78.9
450.2 282.2 75.2
400.5 250.8 104.6
428.2 243.4 119.2
426.0 236.2 115.7
449.0 251.0 114.1
662.5 381.8 107.8
671.0 377.2 136.1
684.0 366.0 114.8
681.5 360.2 133.6
677.0 381.5 142.1
693.5 382.8 126.6
688.0 378.2 154.8
677.0 394.5 189.8
680.0 433.5 98.3
679.0 438.0 94.3
644.5 400.5 146.9
642.0 411.0 163.5
630.0 405.2 179.5
668.0 434.8 139.2
669.0 456.0 155.0
680.5 413.0 104.6
679.5 424.0 177.4
692.5 439.0 115.3
689.0 445.5 103.2
697.0 432.2 134.8
675.0 443.5 172.9
719.0 371.5 139.4
721.5 371.0 152.1
719.0 377.5 146.2
701.5 427.0 122.6
705.0 424.8 132.1
292.2 189.6 49.5
307.8 169.6 54.7
307.0 182.6 73.1
309.8 182.4 55.6
326.8 192.6 46.1
340.0 182.1 59.4
348.8 183.1 64.2
332.2 188.6 69.1
375.5 192.6 68.0
375.5 192.6 67.9
315.5 208.8 79.5
340.8 218.2 60.9
339.2 234.4 80.1
373.8 217.2 68.7
398.0 224.4 60.0
393.0 245.0 75.8
381.2 232.0 79.9
400.8 207.1 69.8
699.5 445.0 104.2
295.0 161.4 59.7
309.5 199.5 77.3
328.0 188.0 50.5
333.2 193.2 63.5
333.0 193.8 90.2
360.5 197.6 61.6
323.5 214.9 61.9
346.5 207.4 66.8
372.2 202.9 66.8
390.5 206.0 80.3
391.2 218.5 86.1
377.2 226.6 56.5
565.0 297.8 98.9
542.0 288.8 117.1
521.5 341.0 95.2
534.0 320.5 76.0
545.5 342.5 72.6
530.0 338.2 98.9
545.0 360.5 86.1
572.5 348.8 94.2
567.5 358.2 95.4
578.0 360.2 77.6
519.5 347.0 117.5
523.0 359.0 105.0
534.0 307.2 141.1
547.5 374.0 138.8
547.5 363.0 128.9
551.0 322.8 105.9
575.0 359.2 143.5
586.0 348.0 108.7
581.5 367.8 117.5
596.0 354.2 160.1
610.5 327.5 149.0
615.0 336.5 143.4
619.0 383.2 102.8
623.5 384.0 149.6
599.5 382.8 169.8
617.0 384.0 167.9
636.0 334.8 143.2
636.0 334.8 143.1
648.0 337.5 132.6
646.0 330.0 134.8
641.5 362.2 153.8
641.5 362.2 153.9
641.5 362.5 153.9
637.0 364.2 152.6
646.0 377.5 135.0
655.0 334.0 123.8
620.0 407.0 110.2
616.0 414.5 151.4
617.0 428.8 128.4
632.0 410.5 129.0
637.0 404.5 142.0
98.4 65.5 23.9
46.0 26.6 9.1
157.6 95.1 24.3
174.8 102.6 31.5
175.2 103.7 28.9
190.4 116.2 51.9
155.5 104.9 27.6
163.9 104.7 36.0
167.2 103.8 42.5
203.5 113.6 26.4
224.4 125.8 49.4
226.5 118.8 40.2
239.8 137.9 51.5
238.1 133.1 65.8
250.6 142.0 64.0
249.5 132.2 56.2
270.0 172.8 40.2
268.8 173.4 40.9
270.0 173.4 40.9
270.0 172.8 39.9
270.8 171.5 39.7
268.8 172.8 40.3
269.0 173.8 40.7
269.5 172.5 40.7
270.8 172.8 40.1
270.5 173.0 40.1
270.2 172.4 40.2
269.5 174.0 41.2
270.0 174.2 40.9
270.0 172.4 40.7
270.2 172.6 40.0
270.0 173.0 39.4
270.5 172.0 41.0
270.2 172.6 40.0
270.0 172.9 40.4
270.8 171.0 39.4
269.8 172.8 40.1
269.8 172.4 40.4
270.0 172.8 39.9
262.0 165.1 45.5
253.9 162.8 59.9
264.5 170.4 53.6
264.2 163.5 59.4
256.8 173.8 61.4
292.0 160.5 48.7
282.0 164.8 53.2
393.5 271.5 79.4
393.2 258.0 89.9
420.0 215.8 79.2
411.0 230.9 67.1
415.5 237.1 79.4
408.8 279.5 88.1
409.2 279.2 87.9
409.0 279.5 87.9
408.8 279.5 88.1
417.0 283.2 92.0
424.5 224.0 77.6
439.5 247.5 89.5
446.5 252.9 87.6
446.8 253.0 87.6
451.5 229.9 85.7
458.5 254.2 86.3
466.5 254.2 76.2
423.8 282.2 103.9
439.5 244.4 106.9
426.0 272.5 103.6
444.2 288.2 116.0
454.2 242.4 111.8
450.2 251.1 117.8
461.0 278.5 77.4
489.5 287.5 68.3
466.8 282.5 100.2
488.5 263.0 120.0
488.2 263.0 119.9
493.0 290.0 124.0
482.0 276.5 133.1
480.2 276.2 128.6
483.5 295.0 133.9
476.8 311.0 78.2
469.8 309.2 121.9
479.0 319.5 99.2
479.8 310.8 105.6
477.8 309.8 126.2
493.0 312.5 135.0
488.2 326.5 119.7
511.5 291.5 91.0
536.0 287.5 88.7
533.5 287.8 97.2
521.0 282.2 134.2
537.5 281.8 111.1
522.0 314.0 114.8
530.0 303.5 105.8
596.0 353.2 140.0
584.0 378.5 109.8
596.0 396.8 113.6
588.5 395.8 113.8
584.0 392.0 138.5
598.0 408.0 99.1
615.0 328.2 116.9
607.0 343.2 118.4
618.5 335.0 157.4
608.5 355.5 153.8
602.5 387.2 166.2
636.5 344.5 115.0
627.0 327.0 144.4
631.5 352.2 106.4
649.0 353.8 150.0
645.5 379.0 117.4
654.5 380.8 120.2
605.0 416.8 155.1
699.5 455.5 100.6
699.0 439.2 120.9
388.5 267.8 87.0
416.2 235.9 56.3
403.5 257.5 61.9
418.0 259.2 87.9
401.8 268.0 78.1
405.5 258.5 87.6
437.2 241.1 59.7
427.2 237.8 70.2
429.5 249.6 98.8
429.8 249.6 98.8
440.0 271.2 81.9
438.5 263.0 76.1
434.2 290.2 88.6
470.8 256.0 88.8
409.0 245.6 117.1
428.8 264.5 118.0
453.0 269.0 107.6
293.5 181.6 40.8
317.2 169.9 73.8
304.0 167.6 61.4
313.0 177.0 62.5
308.2 197.4 69.2
326.5 166.6 65.4
334.2 179.8 60.3
348.0 180.0 62.2
364.5 198.5 64.3
353.5 192.6 63.2
333.5 226.4 64.4
356.5 205.5 69.6
374.5 224.0 60.2
372.5 203.6 66.8
359.8 220.9 79.4
362.5 228.4 65.6
373.8 256.0 89.0
387.0 210.5 84.6
391.8 238.6 57.3
395.2 227.8 73.4
394.2 231.8 68.4
390.8 260.2 58.9
393.0 227.4 102.1
470.2 265.2 87.1
463.0 287.2 67.2
468.8 284.8 88.8
482.0 270.8 76.3
479.5 282.2 83.2
401.8 220.1 80.4
474.5 260.5 114.5
476.5 263.0 119.0
485.0 265.0 108.5
477.5 315.2 95.5
487.5 334.5 93.6
462.5 308.0 101.9
485.5 319.2 107.9
530.0 280.2 104.9
507.5 315.5 76.0
521.5 323.0 84.1
512.5 315.0 89.0
515.5 315.5 99.4
503.5 328.5 95.1
97.6 65.9 22.7
50.7 27.3 11.1
50.7 27.3 11.1
111.5 66.2 24.6
103.7 66.0 25.6
137.4 84.4 24.5
148.4 91.8 43.1
156.4 92.3 41.7
196.8 104.0 46.8
167.9 103.1 38.2
209.6 124.4 26.0
209.4 123.4 35.0
209.8 111.3 40.7
225.6 124.0 42.0
232.2 125.2 33.2
228.8 133.8 53.6
247.9 137.4 60.6
248.1 137.4 60.8
240.5 137.5 53.5
247.8 161.4 41.2
259.0 171.6 46.6
265.5 153.2 33.0
273.2 153.0 43.0
251.8 166.0 54.8
251.6 165.9 54.2
258.2 151.8 68.9
285.5 149.4 45.8
280.0 154.4 57.3
290.2 159.5 73.0
290.2 159.5 73.1
548.0 280.8 106.2
532.0 318.2 76.9
540.0 329.0 69.6
550.5 352.2 84.2
536.0 303.5 119.7
549.5 304.2 106.9
532.0 329.2 136.0
537.0 368.2 129.6
551.5 356.5 122.1
551.5 359.0 110.0
563.0 370.0 129.1
572.0 393.2 112.9
591.0 319.8 122.3
593.5 327.5 138.9
578.5 365.0 118.6
575.5 371.0 130.8
575.0 364.0 136.8
601.0 325.2 94.9
648.5 399.5 184.0
662.0 368.2 149.2
699.5 367.0 123.2
689.0 368.0 133.0
675.0 355.0 141.4
674.5 383.5 124.0
689.5 395.2 145.8
691.5 399.0 133.4
691.5 392.8 153.4
674.0 416.5 97.2
633.0 431.0 143.9
670.5 433.0 139.8
670.0 432.8 141.0
670.5 433.2 140.9
670.5 433.0 139.8
671.0 432.2 139.8
651.0 443.5 132.9
688.0 426.8 138.5
688.0 427.0 138.5
715.0 373.5 129.9
721.5 390.0 143.8
727.5 379.0 125.7
726.5 374.0 148.5
701.0 428.0 121.7
286.8 188.5 62.5
314.0 171.9 51.5
315.8 175.8 64.8
312.2 176.8 64.0
299.5 180.1 53.5
306.5 193.0 68.1
310.8 197.4 67.6
315.2 184.8 89.6
342.0 182.6 64.5
338.8 187.9 70.2
336.2 182.2 77.2
336.5 192.4 90.4
336.5 192.4 90.4
366.2 196.2 61.6
302.5 206.1 60.3
312.2 212.2 55.2
330.2 215.8 68.1
336.5 230.5 64.8
338.8 227.4 65.9
347.2 243.5 76.2
366.2 221.1 84.8
362.2 235.6 57.2
399.8 224.0 81.4
388.5 225.2 87.6
381.8 235.0 65.5
393.8 239.9 80.1
379.0 256.2 89.6
525.0 327.0 85.0
531.5 346.2 99.4
525.5 337.5 100.1
526.0 337.5 100.0
525.5 337.5 100.2
525.5 337.5 100.1
569.0 342.8 85.4
570.5 342.0 94.0
591.5 314.2 96.5
592.5 314.8 96.6
591.5 314.5 96.6
576.5 309.8 94.4
579.5 325.2 84.7
581.5 343.5 91.1
580.5 356.0 99.3
518.5 325.5 132.1
515.5 350.8 131.1
533.5 313.2 111.8
533.5 313.2 111.9
540.5 335.8 122.6
544.0 334.2 139.8
549.0 368.2 115.6
524.5 357.0 138.6
566.0 334.5 115.8
572.5 387.5 120.6
554.0 376.5 129.2
584.0 316.2 102.4
580.0 310.5 143.1
576.5 345.2 104.3
594.5 327.5 138.5
579.5 347.5 130.1
586.5 345.5 125.9
671.5 381.8 117.9
686.5 367.8 102.1
696.5 395.0 126.6
668.5 418.2 87.8
694.0 446.2 95.3
690.5 445.5 97.3
636.5 429.2 125.9
644.5 438.5 159.8
671.5 416.2 146.2
669.5 443.0 136.5
696.5 417.5 152.0
688.5 405.0 183.4
676.5 436.8 101.2
676.0 428.8 116.4
690.5 442.2 118.9
679.5 436.0 140.5
682.5 449.5 135.0
698.5 372.5 132.0
707.5 427.0 99.6
92.0 55.1 20.1
98.8 66.7 23.7
79.9 51.1 16.0
112.9 75.3 23.0
128.4 67.9 31.6
138.0 79.6 36.5
151.5 97.4 24.8
171.4 98.9 22.1
158.9 93.5 40.2
173.4 111.2 28.7
190.1 130.1 37.4
157.9 104.4 39.8
224.2 119.8 40.8
221.0 131.4 28.9
223.2 143.1 48.7
203.5 128.6 47.9
206.4 143.0 50.6
262.8 140.8 57.6
269.0 169.1 45.3
268.8 169.0 45.2
272.5 169.8 49.0
272.2 167.0 48.9
272.5 167.6 48.4
272.2 167.0 49.0
268.8 153.5 58.4
255.8 155.2 65.8
286.5 169.0 56.9
276.2 168.4 50.7
597.5 349.2 152.1
590.0 401.0 110.0
625.5 339.0 95.9
603.5 346.0 119.6
601.0 391.8 147.8
634.0 342.2 116.9
643.5 355.2 148.0
638.0 375.2 160.1
641.5 395.5 151.2
658.0 352.0 108.2
621.0 407.2 88.8
618.5 418.2 101.7
620.0 402.2 151.0
620.5 429.8 121.9
629.5 410.5 132.5
468.2 296.8 95.6
489.0 269.5 64.8
473.5 254.8 120.4
469.5 266.0 102.5
474.0 260.5 106.6
465.5 298.2 100.9
491.0 268.2 100.4
486.8 259.2 124.0
481.8 286.0 108.6
441.5 306.5 96.5
454.2 302.2 89.1
454.0 302.2 89.1
493.0 322.5 89.8
489.0 310.8 77.2
494.2 307.5 89.8
469.8 301.5 131.1
485.2 322.8 113.1
485.2 322.8 113.2
503.8 285.8 86.0
521.5 269.8 105.4
518.0 291.2 109.9
517.5 285.8 100.8
533.0 302.8 90.4
529.5 309.2 88.8
535.5 301.2 94.7
501.5 321.2 120.2
515.5 314.0 110.1
394.0 275.5 87.5
393.2 255.4 92.4
397.0 264.2 101.7
423.0 229.4 94.3
418.2 273.5 65.6
408.2 264.5 72.2
417.5 261.0 87.6
420.5 273.8 84.0
408.0 271.2 97.2
427.8 234.8 60.1
449.2 242.9 65.4
425.2 243.1 75.0
447.5 275.2 61.7
447.5 275.5 61.7
430.8 266.8 62.3
425.8 267.8 56.3
426.0 264.8 97.8
427.0 252.2 94.9
453.8 245.9 83.9
459.8 253.5 96.9
410.0 267.5 108.1
448.0 248.8 114.6
444.8 267.8 122.1
442.8 283.5 104.8
430.2 298.5 105.2
92.7 60.0 25.6
95.5 60.1 26.8
95.6 60.2 26.8
77.7 46.8 15.2
80.3 46.2 17.9
176.0 98.2 45.8
138.9 90.4 27.6
157.1 99.6 23.0
174.2 100.5 43.3
199.5 112.4 44.9
199.5 112.4 44.8
156.5 103.6 36.9
204.0 120.1 30.4
224.2 127.4 37.2
218.6 145.5 60.4
225.9 115.7 42.9
226.6 124.9 42.5
232.5 137.2 34.1
230.5 127.5 34.4
244.5 128.1 40.7
251.2 137.4 65.2
257.5 141.4 51.8
269.0 145.1 60.3
257.8 146.4 62.8
267.2 159.4 44.8
264.8 174.6 53.1
272.8 154.1 50.5
270.8 177.5 38.5
277.5 172.8 38.1
277.5 164.4 69.6
594.0 375.5 86.6
595.5 384.8 156.5
598.5 402.5 139.0
597.5 403.0 151.5
635.5 341.8 93.4
607.0 335.0 157.0
620.0 352.5 106.9
606.5 368.8 142.2
618.5 375.5 151.1
603.0 384.5 138.9
639.5 349.2 105.8
639.5 333.0 149.5
636.0 372.8 117.8
654.5 336.5 126.4
630.0 399.5 84.2
619.5 409.5 157.0
605.5 414.5 149.5
633.5 402.8 146.0
633.0 402.0 162.8
545.5 297.5 76.2
573.0 334.0 74.4
573.0 334.2 74.4
599.0 355.2 79.2
591.5 369.5 89.0
574.5 366.8 89.7
579.5 374.2 100.2
509.0 341.2 125.9
546.5 306.5 130.4
535.0 314.2 141.6
535.5 320.0 153.5
528.5 327.8 118.1
544.0 335.0 102.5
545.0 348.2 129.9
546.5 354.2 117.1
544.0 360.8 102.7
541.5 358.2 123.4
552.0 367.8 122.1
588.0 316.2 129.1
579.0 354.2 167.8
601.0 343.5 83.2
617.0 319.2 111.2
389.5 251.4 107.8
413.8 231.9 63.5
404.2 278.0 75.8
445.0 247.4 87.9
436.5 269.8 65.9
445.8 253.6 79.2
440.0 276.2 58.3
467.0 238.4 85.4
456.0 254.9 61.5
461.2 260.2 83.1
414.2 244.5 112.9
430.8 232.2 100.8
425.5 240.6 107.4
439.8 237.2 108.4
426.0 258.5 106.4
430.2 263.0 120.1
455.5 253.5 101.6
693.0 382.0 94.2
671.0 362.0 124.8
671.0 395.5 106.5
654.0 382.8 150.8
687.5 365.8 115.9
693.5 366.2 129.4
689.5 356.8 137.1
686.0 397.8 100.4
650.0 420.8 185.8
651.5 437.0 106.9
654.5 439.0 136.5
653.5 433.2 180.0
690.0 418.5 181.8
699.0 431.8 112.5
676.5 431.0 139.2
705.5 374.8 142.6
285.8 179.8 73.8
297.5 189.1 51.0
287.2 187.0 52.8
296.2 183.8 86.3
322.8 173.8 72.8
304.0 180.9 57.9
309.0 197.0 69.0
306.2 182.2 81.4
327.0 170.1 69.5
337.5 190.9 89.8
332.8 194.1 90.6
333.0 194.2 90.6
337.8 191.9 93.3
364.8 188.9 66.8
361.8 200.4 56.8
347.0 219.0 80.1
348.8 231.6 88.1
371.8 203.5 73.6
373.0 222.0 94.8
368.2 238.1 93.9
385.5 210.9 71.1
388.5 220.9 71.7
389.2 225.6 88.8
382.8 236.5 57.1
374.5 223.2 100.6
407.8 210.4 69.4
405.8 229.8 78.9
462.2 292.8 81.1
493.5 284.2 88.7
457.8 270.5 121.6
478.0 279.0 111.3
493.0 288.2 136.5
481.2 321.0 81.5
481.2 320.8 81.2
495.5 333.5 97.9
474.5 303.0 125.3
497.8 309.0 107.6
508.8 283.8 69.0
509.0 298.2 94.8
541.5 292.8 84.2
523.5 268.0 107.8
521.5 310.8 64.6
519.5 324.8 79.4
512.0 328.2 91.1
526.5 306.5 92.7
527.5 304.5 92.1
511.5 333.8 103.2
511.5 334.0 103.1
502.0 337.8 103.3
507.5 330.8 126.9
505.2 333.0 133.8
589.0 374.8 104.4
593.5 362.0 134.6
594.0 386.2 139.8
589.5 386.5 157.5
620.5 354.2 95.1
602.0 370.8 82.8
640.5 358.0 83.2
619.5 327.5 144.4
617.5 333.8 162.6
623.0 351.0 100.9
605.0 370.2 124.4
605.5 369.2 138.5
612.0 363.0 173.8
617.0 353.5 171.9
638.5 367.2 115.9
637.5 350.2 153.5
660.5 352.0 109.3
603.0 404.2 137.5
601.0 405.0 147.1
601.0 409.8 152.1
90.1 56.0 15.9
90.2 56.2 15.9
90.1 56.3 16.0
77.6 41.6 11.8
83.0 51.6 11.4
121.9 81.6 30.7
133.2 80.5 34.7
157.6 96.4 42.4
155.5 86.8 30.3
155.4 86.8 30.2
155.5 86.8 30.3
154.1 97.2 27.5
194.0 120.8 41.1
197.9 109.2 26.2
192.6 108.0 51.8
221.5 126.0 39.1
215.5 129.0 35.4
243.2 145.0 38.6
252.5 141.9 69.6
252.5 142.0 69.6
270.2 164.2 47.6
270.8 168.6 52.6
253.8 160.6 69.4
252.8 150.6 67.4
252.8 163.8 70.6
283.0 149.6 47.1
282.2 161.4 51.8
275.0 171.9 72.5
278.2 182.6 52.2
278.2 182.6 52.2
460.2 283.0 66.2
460.2 282.8 66.4
458.8 296.2 93.2
454.2 273.2 121.6
466.2 280.8 106.6
466.5 281.0 106.4
458.0 287.2 109.8
477.0 267.0 106.8
490.0 272.8 104.9
498.5 258.8 104.6
476.0 276.8 129.2
475.5 281.0 125.1
484.5 304.2 69.1
477.8 310.0 80.1
496.2 320.5 98.2
498.0 330.0 85.6
446.0 303.8 100.8
499.5 321.5 116.2
494.2 333.5 120.2
529.5 286.2 134.9
514.0 302.0 114.2
504.5 333.8 124.3
504.5 333.8 124.3
508.0 324.8 130.0
287.5 182.9 58.7
281.5 182.0 77.6
314.2 185.5 48.3
316.5 177.8 52.3
310.5 183.0 55.6
315.0 197.0 59.2
312.8 199.9 63.0
349.0 180.8 61.2
346.2 181.0 60.1
340.2 181.5 68.5
346.0 199.6 81.1
346.8 200.0 82.7
346.8 200.0 82.7
354.5 190.1 58.8
356.8 201.2 67.9
314.5 207.2 52.8
327.8 207.8 69.1
337.8 230.4 77.4
357.5 218.9 79.4
357.5 218.8 79.4
373.5 239.6 60.6
380.0 204.1 89.1
406.2 222.2 70.3
402.5 222.1 76.5
547.0 294.5 86.9
524.0 328.0 98.8
524.0 328.0 98.7
540.0 316.0 67.7
536.0 340.0 88.7
536.5 339.8 88.8
536.0 339.8 88.5
527.0 338.8 96.2
538.5 360.5 92.2
566.0 346.0 76.7
566.5 380.2 97.7
585.0 338.8 95.8
520.5 352.8 110.9
536.0 309.5 143.8
527.5 357.0 121.1
527.5 357.0 121.0
546.5 366.5 110.9
543.0 369.5 114.5
536.5 365.8 118.1
537.5 357.0 145.2
537.0 359.8 131.4
562.0 307.2 109.6
569.5 300.8 121.6
550.5 366.5 114.8
561.0 391.5 128.8
584.0 307.5 104.2
588.5 323.8 100.1
592.0 362.0 119.1
607.0 311.8 111.1
605.5 319.5 129.6
605.5 319.5 129.4
605.5 319.5 129.5
605.5 319.8 129.6
605.5 319.2 129.6
605.5 319.8 130.1
605.0 319.8 129.9
669.5 397.8 102.9
681.0 373.0 122.6
693.5 375.0 143.5
698.5 364.8 164.6
682.5 376.0 140.9
699.0 386.8 149.9
646.5 414.5 147.2
664.5 456.8 169.1
658.0 454.0 163.8
658.0 454.5 163.8
693.0 411.2 173.5
660.0 383.2 106.9
686.5 390.8 123.7
687.0 390.8 123.8
655.5 424.2 178.5
716.5 375.0 158.9
399.0 267.2 60.6
407.5 244.2 70.4
417.0 241.2 72.9
416.2 239.5 97.9
403.5 258.5 70.5
422.2 251.2 84.2
421.8 251.6 84.3
422.5 250.5 83.9
422.2 250.6 84.4
422.0 251.9 84.0
422.2 251.8 84.1
422.5 250.6 84.2
408.2 284.5 88.6
441.2 292.0 84.9
433.5 295.5 92.8
440.2 276.2 90.2
458.2 253.1 86.5
459.2 264.2 86.9
459.2 264.2 86.8
461.5 267.5 90.8
453.5 288.5 72.1
453.5 288.5 72.1
411.8 250.4 113.6
405.2 275.2 103.2
423.8 278.0 106.8
444.5 247.1 116.8
444.5 247.2 116.7
426.8 287.8 109.4
432.5 278.2 118.1
458.8 258.5 111.0
526.0 343.8 88.0
528.0 340.5 95.5
572.5 346.0 74.6
593.0 334.5 95.6
595.0 339.5 75.4
522.0 331.8 142.2
529.5 343.8 117.4
528.5 345.8 149.2
572.0 338.2 111.3
571.0 363.0 106.2
562.5 359.5 142.2
596.0 317.8 148.8
585.5 329.8 101.7
578.0 350.0 128.1
600.5 321.0 89.7
600.5 321.2 89.7
97.6 63.9 18.8
100.8 65.4 14.5
135.9 76.4 30.3
166.8 107.8 43.9
169.8 113.0 37.3
184.6 123.2 31.6
178.8 107.7 44.7
196.4 135.9 43.8
196.4 135.9 43.8
197.2 128.6 32.5
219.2 117.8 37.5
207.9 116.6 27.3
226.6 141.8 42.4
225.0 137.4 34.6
224.9 137.4 34.6
224.9 139.1 35.1
233.6 125.9 33.4
245.0 160.4 37.3
247.0 160.6 39.0
269.5 145.8 60.8
576.0 395.2 99.7
593.0 404.8 115.4
615.0 356.8 89.4
606.0 353.2 150.2
615.0 392.0 120.8
615.0 392.2 120.8
621.0 395.8 116.0
617.5 379.8 144.6
605.0 374.8 161.9
616.5 385.0 164.5
633.0 345.5 144.8
632.5 345.8 144.5
625.5 335.5 155.2
645.0 367.8 151.8
633.0 389.8 100.3
631.5 380.2 113.2
639.0 374.8 139.0
637.5 376.0 154.9
662.0 368.2 110.9
605.5 399.8 126.8
622.0 424.0 154.2
605.0 415.5 149.1
637.0 406.2 104.0
672.0 345.8 146.0
689.0 364.0 126.9
679.5 399.5 135.4
693.0 395.2 180.2
684.0 399.2 192.1
641.5 417.5 138.2
649.5 436.2 146.1
649.5 453.8 141.6
651.0 422.5 176.5
677.5 416.5 182.2
692.0 416.5 177.1
682.5 414.5 180.8
687.5 445.8 110.9
706.5 416.8 138.8
702.5 411.8 160.2
661.0 443.8 175.0
469.0 264.5 90.8
468.0 284.0 71.6
458.8 288.2 74.6
464.2 281.5 83.4
464.2 282.0 83.6
459.5 292.2 86.8
473.8 287.0 99.1
449.0 296.5 91.3
494.5 264.2 98.4
491.0 254.8 115.7
485.8 259.8 113.8
486.8 281.2 125.0
484.2 317.2 79.6
491.8 332.8 104.5
502.2 299.2 69.7
506.8 287.0 83.5
508.5 278.8 87.7
526.0 292.2 139.4
518.5 308.2 107.5
506.8 316.5 107.4
517.5 307.2 125.4
503.2 327.8 126.0
508.5 332.2 138.0
302.8 163.8 62.9
315.0 174.1 82.1
319.0 199.6 46.7
308.8 195.0 50.8
308.8 195.1 50.8
305.5 193.8 50.8
309.2 196.8 72.3
317.0 191.1 51.5
331.5 182.5 44.6
330.5 184.2 59.4
338.2 183.6 69.1
325.5 199.4 65.9
336.0 177.8 82.8
351.0 187.0 68.4
354.5 190.9 54.7
351.8 189.2 63.0
366.5 193.1 82.8
368.2 196.5 77.3
368.2 196.4 77.2
368.2 195.9 76.9
316.0 218.0 61.1
324.8 213.6 53.8
321.5 220.2 69.5
335.2 218.5 63.3
339.2 220.5 89.4
352.8 204.1 89.9
396.5 223.9 60.8
376.8 202.6 77.5
376.5 246.4 66.7
390.8 234.4 63.1
395.5 227.1 65.7
388.2 243.8 80.9
391.0 248.2 76.4
382.5 238.2 102.4
400.0 207.5 64.7
407.2 223.0 69.2
405.2 224.0 99.4
397.5 250.4 108.0
408.0 246.9 77.8
415.5 246.1 84.6
422.0 249.8 88.6
421.2 263.0 74.2
406.2 271.0 61.0
422.0 274.2 84.5
403.0 258.2 91.3
415.8 274.2 95.0
422.8 288.2 90.2
433.2 241.0 84.0
429.2 255.5 86.2
449.2 261.5 75.9
449.2 261.8 75.9
448.8 261.5 76.2
435.5 280.5 58.7
456.5 249.4 78.2
456.2 249.1 78.3
406.2 249.6 118.1
427.8 237.4 112.7
450.8 275.0 119.7
413.5 247.9 52.3
419.5 242.4 95.1
409.0 232.9 75.1
418.8 290.8 81.9
436.2 247.9 66.3
426.5 231.8 64.0
443.0 246.5 96.6
429.0 281.0 95.9
448.0 283.2 96.6
458.5 252.6 85.8
454.2 253.2 81.2
443.5 245.0 100.6
431.2 260.5 119.7
428.0 296.8 105.5
442.5 289.8 115.0
432.8 302.2 100.6
432.8 302.2 100.4
92.1 56.4 26.7
184.2 100.1 45.6
184.1 100.1 45.7
179.1 99.5 39.8
101.4 54.5 24.0
125.2 69.4 33.3
137.8 78.2 33.7
161.6 95.8 20.7
194.8 100.5 35.7
187.0 116.8 37.7
190.4 117.3 37.7
187.9 109.4 51.2
190.8 108.4 52.9
203.6 116.9 38.0
210.2 140.1 43.4
214.9 129.4 34.6
234.8 133.1 37.8
229.0 125.9 59.0
236.0 136.4 66.4
239.6 157.4 44.0
241.1 153.4 33.9
229.5 153.8 60.2
251.1 138.8 56.7
251.1 170.4 43.8
255.1 172.1 39.8
251.8 167.8 40.6
251.8 167.8 40.6
256.2 168.4 50.0
277.5 170.0 73.1
293.2 175.1 44.3
297.5 180.8 57.0
298.2 180.6 56.7
283.8 190.9 52.8
313.0 174.4 44.6
311.0 169.0 48.3
304.8 194.6 42.0
304.8 190.5 41.8
310.5 190.8 63.9
308.0 182.9 77.4
313.5 183.6 79.2
327.0 173.5 53.4
339.5 185.5 47.7
334.0 193.1 66.6
342.2 184.4 78.5
383.5 198.5 82.4
343.5 202.8 87.0
348.5 234.8 71.8
354.5 219.2 50.0
361.5 232.0 62.3
357.0 226.5 99.1
356.2 226.9 98.9
356.8 226.5 99.1
357.0 226.5 99.1
374.8 214.2 65.1
374.5 214.2 65.2
397.2 205.9 72.7
379.8 235.8 84.9
398.0 244.2 74.9
390.5 243.0 76.2
390.5 243.4 76.1
390.0 242.4 76.4
401.2 234.4 53.4
524.0 335.0 92.2
517.5 339.2 87.8
549.0 302.8 97.9
569.5 348.2 88.6
579.5 316.8 78.2
599.5 347.0 75.7
584.0 374.0 83.7
579.0 362.8 80.9
510.5 332.5 137.5
541.5 319.2 143.8
542.5 337.0 124.2
548.5 337.0 159.8
537.5 359.0 143.9
529.5 363.2 134.8
538.0 366.5 134.0
556.5 307.0 110.1
551.5 319.2 139.5
571.0 396.8 111.4
557.5 380.8 146.1
579.0 333.8 114.6
579.0 333.8 114.6
594.5 333.2 154.6
586.5 350.5 107.4
592.5 372.8 84.5
592.5 373.2 84.7
599.5 359.8 124.2
599.0 359.0 140.6
586.0 397.0 140.2
595.0 406.2 150.0
616.0 378.2 97.6
617.5 377.5 95.7
618.5 365.0 122.8
613.0 353.0 114.6
617.5 389.0 134.0
615.0 395.0 152.4
631.5 345.5 106.0
631.5 345.5 106.1
631.5 334.8 104.4
647.5 355.2 114.2
644.0 364.0 103.8
648.5 361.8 152.4
639.0 390.2 155.0
643.5 380.5 178.4
660.5 341.2 114.2
658.5 350.2 109.1
615.5 428.0 127.8
613.5 427.8 128.6
614.0 427.5 128.8
471.8 256.5 94.1
464.0 281.8 68.2
484.8 264.2 89.8
496.0 281.8 69.2
496.0 281.8 69.2
482.8 291.8 59.8
457.2 271.8 119.1
468.5 268.5 103.4
461.5 277.8 114.1
453.8 280.0 125.8
473.0 281.0 126.8
478.2 258.8 122.5
497.8 262.0 112.2
459.5 302.8 87.1
455.2 301.8 91.7
489.8 317.5 77.6
490.0 317.5 78.6
489.8 317.2 77.4
490.5 325.8 90.5
513.5 273.0 95.0
529.5 278.0 120.0
502.2 303.5 91.2
504.0 330.2 89.9
508.5 327.2 99.0
530.5 308.0 87.7
505.8 336.8 104.6
505.5 336.8 104.8
666.5 386.0 159.9
697.5 371.2 101.6
698.0 371.0 101.4
676.0 381.5 110.8
685.5 398.5 188.2
647.0 416.5 100.3
646.0 440.2 171.2
646.0 443.0 157.9
672.5 415.8 136.0
673.0 421.0 166.8
675.0 459.0 119.4
690.5 404.2 133.4
685.0 401.2 193.8
696.0 428.2 101.0
711.0 371.0 166.6
726.5 377.8 123.0
691.5 444.0 151.4
732.0 376.8 144.5
513.5 352.5 93.9
513.5 356.2 99.1
538.0 318.5 69.7
530.5 344.2 97.8
550.5 336.5 89.2
553.5 337.8 80.2
584.0 326.0 76.0
581.0 364.5 79.5
581.0 364.5 79.6
540.5 302.2 120.9
535.5 346.0 107.9
548.5 328.2 127.2
540.5 326.0 134.4
529.5 347.2 131.1
532.5 352.2 119.8
537.0 351.8 117.2
531.0 361.8 109.8
529.5 362.5 109.2
567.0 339.5 151.5
552.5 360.2 146.8
569.5 356.8 145.8
574.5 384.8 122.0
575.5 317.0 147.9
575.5 317.0 147.9
580.5 341.2 108.0
584.5 332.8 158.6
582.5 351.5 103.8
600.5 338.5 130.4
391.5 262.0 85.9
409.8 244.2 51.8
411.0 232.8 88.1
437.0 229.0 69.9
429.0 229.5 62.0
433.0 246.2 84.0
431.0 240.5 87.2
440.8 235.9 98.2
431.5 265.5 73.5
437.8 275.2 94.1
436.8 280.0 70.6
426.8 288.8 76.1
439.5 283.8 83.3
469.8 257.5 77.1
450.5 265.2 76.4
414.0 281.2 102.0
415.8 280.5 104.4
435.5 235.9 99.7
435.8 236.0 99.8
427.5 276.0 108.1
451.2 250.9 111.1
468.2 297.2 69.7
460.0 285.5 77.5
470.0 278.8 79.2
467.5 257.2 119.8
472.2 273.8 102.1
468.5 275.5 101.9
460.5 294.8 112.4
460.5 294.8 112.4
476.0 270.8 100.5
476.0 269.0 102.9
477.5 254.1 106.1
494.0 283.0 118.9
471.0 302.5 109.2
471.0 306.0 125.2
479.0 321.8 106.1
491.2 322.8 116.4
519.5 273.8 84.4
528.5 285.2 80.2
530.0 297.8 104.1
525.5 316.8 67.9
533.5 313.5 68.3
533.5 308.8 80.1
531.5 307.8 85.8
667.0 398.5 86.3
665.0 399.2 136.8
700.0 365.8 110.6
689.5 366.5 128.6
679.5 369.2 144.5
697.0 382.2 182.5
685.5 415.0 86.9
629.5 432.2 113.9
638.0 437.0 135.6
645.0 437.0 157.4
654.0 435.5 142.4
664.5 444.8 181.5
677.0 404.8 102.3
694.0 409.5 165.8
687.0 443.2 100.9
685.0 448.5 140.6
714.5 388.5 111.7
721.5 396.5 112.9
709.5 390.5 139.1
299.0 161.4 60.3
284.8 168.0 79.1
289.5 187.5 46.8
287.2 193.1 60.3
303.0 194.9 41.9
317.8 183.5 66.6
319.8 176.4 63.4
304.0 184.9 55.2
331.0 171.2 71.4
337.2 177.9 75.7
353.0 197.4 65.1
350.0 195.4 63.3
350.0 195.4 63.3
322.8 205.0 58.9
322.8 205.0 58.9
334.5 216.4 65.9
353.5 223.2 75.4
353.2 224.5 64.9
366.8 205.0 72.7
351.5 207.8 85.2
383.0 207.1 72.6
390.8 217.0 86.9
382.0 243.9 51.2
398.0 228.6 74.8
383.8 236.8 78.1
391.0 256.2 57.5
395.5 251.8 57.4
396.5 237.4 108.0
399.8 233.8 52.5
407.2 229.5 61.0
96.2 62.8 23.2
86.6 55.7 22.3
96.0 62.4 21.5
96.1 62.4 21.5
82.4 43.6 17.2
86.8 51.0 13.0
139.4 93.6 22.4
142.8 75.2 22.4
143.2 95.8 25.6
135.8 91.3 34.5
127.1 77.3 32.1
152.4 95.4 23.8
156.0 94.4 27.2
154.1 99.4 38.5
156.5 85.4 28.3
173.6 99.1 33.0
170.1 94.4 46.1
174.2 103.4 24.4
174.4 103.6 24.4
179.8 105.8 49.2
211.9 123.1 38.5
214.8 122.5 50.1
211.8 134.0 28.9
213.4 132.2 34.7
209.0 130.0 57.7
225.9 123.0 34.5
227.2 118.9 54.9
238.9 132.8 32.0
239.0 132.9 32.0
239.0 132.9 32.8
239.4 132.4 31.7
238.4 132.2 32.3
239.2 132.5 31.8
239.0 132.8 31.6
239.0 132.8 32.0
239.1 132.0 31.4
238.6 132.9 32.5
239.1 132.6 31.2
239.1 132.6 31.9
238.9 132.4 31.9
238.6 132.4 32.4
234.0 142.4 38.9
230.9 132.4 30.0
228.2 127.1 47.8
227.2 155.6 51.6
248.8 165.9 66.9
256.0 141.1 66.9
268.0 167.1 35.4
256.0 157.2 67.1
267.0 170.0 70.1
257.8 150.9 64.8
281.8 163.5 39.9
289.2 160.0 58.6
283.8 167.0 54.2
280.5 167.1 50.7
288.2 159.5 57.2
589.0 354.5 156.4
596.0 378.2 112.9
599.0 391.2 131.1
595.0 390.8 144.9
594.5 409.5 113.8
595.5 411.2 129.2
608.5 385.2 100.2
650.5 394.0 90.8
618.0 345.8 118.1
607.5 344.5 111.2
607.5 344.5 111.4
617.0 329.2 155.5
603.5 370.0 132.8
607.0 352.5 159.2
638.0 349.0 102.9
632.0 350.0 110.9
647.5 337.0 133.2
646.5 364.8 143.2
669.5 354.2 104.9
653.5 364.2 135.8
627.0 411.8 114.8
392.8 246.4 108.8
410.8 264.0 97.2
415.2 278.0 74.4
445.2 249.4 89.0
445.8 269.0 86.0
452.2 234.1 85.4
466.8 265.8 80.1
437.2 240.9 102.9
444.5 247.5 117.6
428.2 290.5 109.7
428.5 290.5 109.7
428.5 290.2 110.1
428.5 290.8 109.8
428.5 290.5 109.9
429.0 289.8 109.0
428.0 290.0 108.8
428.0 290.0 109.1
428.8 289.5 109.3
428.8 289.8 109.0
428.2 290.5 109.6
428.2 290.2 110.8
428.2 290.5 109.4
428.5 290.8 110.3
428.8 290.5 109.1
428.5 290.8 109.5
428.5 290.8 109.6
428.2 290.8 109.6
428.0 291.0 110.8
428.0 290.2 109.4
428.2 290.5 109.3
447.5 297.0 95.4
473.8 290.0 72.4
466.5 291.2 79.3
466.0 295.2 86.4
476.8 289.0 68.7
487.2 290.2 65.9
478.0 291.2 81.8
475.2 258.0 103.5
485.2 264.5 107.6
475.2 281.0 124.6
446.8 310.2 93.6
498.0 303.2 66.2
498.2 320.8 89.4
488.0 324.2 85.6
499.0 302.5 114.7
496.8 327.5 135.5
514.0 272.5 84.4
501.5 266.0 79.9
502.0 265.8 80.2
506.5 289.0 83.1
509.2 290.8 82.3
505.5 294.0 91.4
516.0 278.2 113.1
510.2 305.2 84.5
500.8 337.0 119.9
90.5 54.9 26.3
100.1 61.4 14.0
100.1 61.4 13.9
111.2 68.4 20.0
147.9 90.8 20.5
153.9 94.2 23.8
166.0 105.0 43.2
173.4 101.2 25.5
213.8 110.2 42.4
209.1 123.9 39.2
219.2 135.0 48.8
230.0 126.2 44.3
241.4 146.1 66.6
248.5 163.9 47.1
226.4 154.9 54.4
258.0 137.8 65.9
263.5 152.4 34.5
268.8 161.2 36.6
256.2 167.1 48.4
263.5 172.4 49.7
270.0 157.2 51.9
268.8 180.2 59.6
288.2 168.5 54.4
288.5 168.5 54.5
280.2 153.5 57.6
288.0 187.0 53.4
320.0 167.8 68.6
302.0 193.9 40.3
307.0 191.2 70.2
306.2 184.9 78.4
330.0 180.5 45.1
338.8 189.4 61.5
371.0 194.5 60.0
369.8 192.9 82.8
354.8 200.1 97.7
384.2 199.4 63.7
316.0 217.6 60.9
343.2 220.5 46.5
343.0 221.0 68.4
329.2 209.2 61.1
330.2 217.1 60.7
345.0 209.9 89.3
349.0 202.9 85.8
356.2 220.5 98.9
352.8 207.5 96.1
368.2 243.9 94.6
354.2 237.1 86.4
396.0 217.6 99.2
395.5 237.6 95.0
544.0 314.0 71.4
526.0 358.8 86.6
564.0 306.0 79.1
581.5 375.0 85.9
575.0 383.5 99.7
520.0 354.0 131.4
543.0 311.5 126.1
535.0 305.5 144.4
535.0 305.5 144.2
525.5 322.2 127.3
537.0 336.5 128.8
542.0 362.8 104.2
556.0 374.2 132.6
559.0 367.2 154.9
562.5 380.0 135.8
585.0 320.2 115.0
575.0 354.8 117.2
589.5 358.5 130.9
601.0 319.0 140.2
605.5 325.5 116.3
673.0 395.5 96.6
669.5 373.5 134.1
657.0 380.0 179.5
678.0 392.5 142.9
634.5 442.5 130.0
665.0 410.5 165.5
653.5 434.0 122.4
683.5 421.5 165.9
684.0 422.5 171.8
677.0 442.0 173.2
676.5 431.2 185.8
709.5 368.0 153.9
701.5 390.2 105.2
713.0 377.5 120.6
717.0 378.0 142.2
717.0 378.0 142.1
595.5 361.5 113.2
595.5 361.5 112.9
597.5 350.0 136.0
578.0 397.0 109.6
619.0 378.0 81.6
640.0 346.5 92.6
611.0 361.2 115.9
608.0 365.8 111.1
605.5 364.0 136.9
645.5 330.8 130.5
649.5 351.8 99.2
641.5 382.2 127.7
642.5 379.8 178.8
641.5 400.0 84.6
641.0 400.0 84.7
628.5 411.5 97.6
623.5 410.2 102.9
622.0 407.8 165.5
298.2 160.8 61.5
297.2 165.8 58.6
287.8 195.1 60.8
284.8 180.8 76.4
298.0 189.9 79.5
297.2 191.4 79.7
318.0 167.9 76.2
316.2 186.9 44.9
324.5 182.5 48.0
309.0 195.1 57.5
309.0 195.2 57.5
321.0 197.0 52.8
318.5 193.9 68.3
319.2 198.9 78.9
322.5 175.9 84.9
338.5 181.6 56.7
338.8 182.0 69.7
338.8 182.0 69.7
325.8 195.9 62.5
347.0 196.4 64.0
335.2 191.5 81.2
328.0 197.6 87.9
333.8 188.8 89.8
310.2 208.9 48.6
310.8 202.9 56.3
344.5 201.8 43.8
344.5 201.8 42.8
335.8 206.0 62.6
337.5 222.5 50.0
326.5 205.9 59.2
342.8 210.4 89.2
342.5 209.9 89.3
373.0 245.0 67.0
393.0 232.5 52.9
393.0 232.5 52.7
391.0 230.1 53.3
397.5 241.2 92.8
396.2 225.8 108.0
414.0 220.4 71.8
406.8 232.0 61.8
674.5 373.2 133.0
683.5 398.0 148.1
679.5 394.2 177.0
690.5 418.5 90.4
659.5 444.2 164.6
673.5 462.8 127.1
698.0 416.0 145.4
698.5 405.8 178.5
677.5 452.2 105.8
678.0 452.2 162.1
723.0 373.2 145.4
722.5 399.5 113.7
568.5 293.0 118.1
525.5 331.5 79.3
540.5 337.8 90.7
532.5 354.8 96.2
555.5 345.5 78.9
590.5 310.0 95.4
587.0 367.2 84.2
518.5 337.2 100.2
518.5 337.0 100.3
515.0 346.2 114.1
550.5 352.8 114.3
535.0 351.0 132.4
544.5 366.0 136.9
536.5 366.5 126.6
537.0 362.8 126.0
564.0 299.5 134.2
552.0 363.8 132.1
579.0 343.2 121.1
588.0 331.0 109.3
588.0 342.8 146.0
