92.7 58.3 25.4
92.9 58.3 25.6
92.8 58.2 25.5
92.8 58.4 25.5
145.1 82.8 30.8
137.5 86.2 27.9
158.6 84.9 27.0
179.0 101.2 30.4
162.0 108.1 41.3
161.8 102.8 29.5
217.2 115.0 40.2
205.2 130.6 39.7
217.9 131.5 36.5
207.2 137.6 41.9
205.5 128.9 44.8
240.1 149.2 38.4
237.2 150.8 57.8
88.3 49.6 24.4
96.3 53.2 23.2
55.7 31.2 15.2
55.8 31.4 15.1
56.0 31.6 14.9
55.7 31.2 15.2
142.5 79.0 24.2
142.4 96.2 37.0
138.5 92.9 26.3
150.4 99.2 24.2
155.0 89.2 21.1
170.2 95.1 28.1
174.6 100.2 47.3
187.1 111.5 43.3
205.1 121.6 50.2
218.9 146.8 47.5
217.0 143.5 60.7
233.9 136.2 31.7
235.4 156.2 44.8
235.4 156.5 44.6
89.2 59.5 23.2
89.2 59.5 23.2
89.1 59.5 23.3
98.9 64.9 18.1
118.2 72.1 29.6
147.2 91.7 18.6
155.9 82.5 33.2
158.4 92.4 26.4
154.9 85.8 33.3
160.2 93.4 45.7
192.5 120.8 39.2
192.2 126.3 31.5
212.5 118.9 51.7
212.8 134.1 30.5
200.6 130.0 57.3
225.2 122.1 38.2
226.6 125.6 49.2
229.1 145.9 33.3
228.9 159.5 49.2
231.0 159.4 51.4
99.8 53.3 17.1
99.8 53.2 17.1
99.3 67.8 19.0
70.6 40.6 13.2
81.1 51.1 14.1
129.2 76.2 31.9
139.1 75.9 26.5
141.9 98.8 29.2
156.0 89.7 29.7
182.0 108.9 32.9
193.6 109.9 43.4
189.2 120.9 37.8
194.5 125.0 35.1
196.0 135.2 37.3
211.4 108.4 38.7
223.0 113.6 46.7
223.0 122.6 38.8
211.1 134.2 28.5
224.9 122.3 54.4
229.4 132.0 43.1
236.8 142.0 31.0
245.6 134.2 58.7
87.8 45.3 16.3
92.5 56.3 26.4
156.4 96.8 30.6
182.6 101.4 49.4
182.6 101.4 49.4
228.2 139.8 35.6
240.6 131.5 33.2
225.0 149.2 36.4
235.0 130.5 59.5
99.5 64.6 16.5
79.5 48.4 13.3
82.6 43.4 13.8
174.2 99.6 46.8
106.2 68.4 15.6
139.4 95.7 24.4
125.8 84.8 30.5
134.1 78.2 29.9
134.1 78.1 29.8
154.0 97.2 24.4
172.1 95.3 41.0
184.8 124.2 42.8
181.1 107.5 34.6
194.5 124.7 34.7
208.8 122.5 45.9
211.1 123.5 53.1
207.4 126.4 31.9
209.4 127.4 56.3
240.5 137.0 33.1
243.4 152.5 31.2
92.1 57.8 25.1
121.8 75.4 24.1
125.2 74.6 21.4
146.9 92.3 23.2
146.6 81.4 39.1
152.5 88.0 30.0
164.5 96.1 43.4
197.0 103.8 39.0
185.1 103.9 27.8
199.5 131.8 35.3
165.4 101.9 28.7
211.5 128.1 61.1
232.0 121.8 36.6
93.4 54.1 25.8
93.4 54.0 25.8
93.4 53.9 25.8
93.5 54.2 25.8
72.1 49.6 13.0
185.4 99.6 39.4
121.2 64.4 29.9
131.0 67.1 27.6
179.9 121.2 43.3
193.8 124.3 34.6
175.2 101.5 48.4
163.9 101.4 28.8
217.2 115.8 46.3
203.9 110.6 40.2
203.8 110.1 40.2
210.4 135.2 32.0
220.6 135.0 48.7
239.2 143.4 68.6
85.4 51.8 14.1
94.4 63.8 22.0
93.6 60.0 25.0
70.6 43.0 13.6
79.8 51.2 12.9
121.4 77.6 29.8
147.5 87.9 27.6
164.0 84.8 38.1
170.2 112.6 44.1
189.4 100.9 45.0
190.8 105.4 25.4
207.1 141.2 40.2
233.0 140.2 44.7
233.1 140.2 44.6
94.1 60.4 13.4
145.5 85.4 24.9
135.5 79.1 30.8
135.8 90.4 36.8
152.8 91.2 24.1
174.6 106.7 23.2
189.1 119.9 42.5
184.0 102.5 26.8
199.8 131.6 50.1
199.5 132.0 49.9
221.0 115.8 42.6
217.0 133.5 31.1
217.1 149.0 49.8
207.4 145.0 45.9
231.8 129.8 49.7
246.0 134.6 59.1
231.2 157.9 48.6
252.1 129.1 45.1
76.8 45.7 15.3
82.6 45.1 21.0
82.5 49.3 16.4
82.5 53.5 13.8
180.0 97.3 38.1
100.6 64.2 24.2
101.9 66.4 28.6
120.6 79.4 21.8
152.0 85.1 35.9
168.2 88.1 33.8
169.2 103.4 47.2
172.4 101.6 48.5
188.5 120.8 34.3
167.2 101.7 25.2
200.6 111.9 45.9
223.9 120.2 41.7
216.0 127.9 34.1
200.5 130.6 50.2
227.5 124.3 46.8
226.4 120.2 39.4
225.5 133.4 38.6
240.0 146.1 30.8
240.0 146.1 30.8
240.8 129.2 35.1
94.2 59.9 17.1
95.8 62.4 21.7
98.2 60.6 23.5
184.0 95.3 42.0
113.8 71.5 32.3
140.9 93.2 24.6
147.0 86.3 27.0
125.4 79.4 32.2
156.4 88.8 30.3
169.5 89.2 32.5
174.1 95.2 28.9
169.0 86.5 34.1
183.5 110.3 34.6
186.1 106.2 31.0
186.2 106.3 31.1
186.0 106.2 30.9
203.9 119.8 31.7
230.9 132.9 65.2
93.1 50.2 19.2
88.9 57.5 23.9
74.8 41.5 15.7
115.1 64.0 23.9
127.6 85.7 33.2
142.8 88.3 33.8
156.9 85.1 26.5
178.0 104.2 32.6
186.9 117.2 35.8
180.5 100.8 30.8
176.1 102.2 37.5
182.5 100.2 33.1
164.8 107.4 43.5
208.8 123.1 30.5
202.1 137.6 32.9
231.0 124.1 38.0
227.6 122.9 44.6
239.0 141.5 63.5
89.8 57.8 23.6
96.4 57.0 16.1
83.9 49.0 16.9
112.0 65.6 25.1
121.6 78.9 25.5
132.5 84.2 32.6
139.9 78.4 25.4
155.8 87.6 24.3
174.0 110.1 39.8
189.8 105.2 25.1
185.4 117.6 44.1
195.5 117.4 32.8
167.9 102.1 41.7
216.8 127.4 35.4
210.6 141.4 52.1
227.4 124.8 35.1
242.5 144.0 39.1
227.0 137.8 60.8
95.1 52.2 21.6
31.5 16.8 6.8
72.4 43.5 13.3
72.4 43.5 13.3
120.9 74.2 23.5
118.1 72.3 31.2
149.6 81.8 36.7
149.8 81.8 36.7
137.8 81.4 27.4
138.0 81.2 27.3
137.9 81.8 27.5
156.4 96.3 23.3
164.2 96.1 43.4
174.2 103.9 22.5
227.2 119.6 55.1
247.5 130.0 41.1
96.4 62.3 19.0
86.7 50.8 11.7
85.9 54.2 15.3
88.9 55.9 25.0
101.9 54.5 25.3
111.6 73.4 25.8
120.8 78.2 22.9
143.2 95.6 23.0
148.2 85.8 31.0
157.0 90.4 24.3
169.2 96.5 25.0
174.6 116.2 27.2
178.2 102.1 40.7
192.2 107.1 33.9
192.0 107.2 34.1
192.0 107.2 33.7
192.2 107.1 33.8
192.2 107.1 33.8
191.9 106.8 34.0
192.2 107.2 33.8
175.5 102.6 25.5
178.5 103.2 38.7
204.0 137.5 36.1
218.0 140.4 40.4
220.9 126.2 39.3
224.4 128.1 37.2
220.4 139.0 63.0
205.4 140.8 52.2
205.4 140.8 52.2
232.9 128.1 31.0
233.4 136.5 35.7
230.2 126.3 59.4
228.8 156.5 53.7
90.1 50.7 23.2
72.2 46.3 14.2
77.8 45.2 18.1
102.6 71.4 22.8
114.1 70.4 16.8
145.4 93.9 22.9
137.1 75.3 29.5
150.4 94.0 24.6
161.1 99.7 29.6
172.9 107.5 40.4
170.8 103.7 33.6
212.6 109.9 41.8
212.9 109.6 41.2
212.5 110.1 42.0
213.2 110.0 41.7
212.6 109.9 42.2
212.2 109.6 42.2
203.9 128.8 46.9
203.1 139.2 52.9
209.5 126.4 60.7
228.0 119.8 35.8
232.8 124.7 33.8
228.2 132.6 31.7
233.9 142.1 41.1
236.6 163.5 41.8
232.5 158.6 58.5
86.1 57.1 18.5
88.4 55.3 23.0
81.2 50.0 17.9
80.6 50.5 13.5
176.4 97.2 36.3
106.9 58.7 20.1
139.2 91.4 27.1
139.4 91.6 27.2
139.2 91.5 27.2
137.0 88.5 26.8
135.5 88.3 28.2
153.6 87.6 22.5
153.6 87.4 22.5
150.6 89.6 18.6
155.6 82.9 29.9
161.1 91.5 25.8
176.0 112.9 33.1
186.8 120.5 29.6
199.2 107.5 50.4
170.1 100.6 22.4
161.2 103.5 42.9
161.0 104.4 42.3
161.2 103.4 42.8
161.2 103.5 42.9
161.6 103.1 42.4
161.5 103.4 42.8
161.2 103.1 43.0
161.4 103.8 43.2
161.1 103.9 42.6
161.1 103.2 43.1
161.5 103.7 43.5
161.2 103.5 42.9
160.8 102.9 43.3
161.2 103.6 42.9
161.4 103.3 42.8
161.2 103.6 42.9
161.4 103.6 42.8
213.6 112.9 48.5
215.8 129.0 32.9
210.8 125.9 48.9
233.5 137.8 40.8
235.9 135.6 40.2
244.6 152.1 31.6
237.4 150.8 58.8
237.8 150.4 58.7
86.8 50.7 13.4
90.1 61.2 23.7
63.0 43.9 14.8
81.7 49.2 22.8
81.8 49.2 22.8
101.3 61.3 25.6
116.8 76.1 31.4
129.0 71.1 25.5
128.9 86.2 33.7
143.8 76.2 27.4
154.6 97.5 38.8
172.1 103.2 34.7
174.8 103.4 30.7
174.6 101.0 35.9
189.1 112.8 49.2
201.2 105.5 35.6
221.4 135.4 33.0
203.1 139.0 45.2
219.8 150.5 38.5
93.4 50.3 19.4
97.2 63.8 24.8
95.2 64.1 16.4
101.1 61.7 13.6
144.5 91.0 24.2
148.1 90.4 20.0
148.0 90.4 20.0
153.2 89.9 21.1
181.8 107.8 31.3
199.1 135.0 36.0
199.1 135.0 36.0
162.1 107.4 45.2
227.9 139.5 33.7
228.0 133.4 31.3
225.6 156.2 51.4
139.2 93.1 22.8
130.6 77.5 20.3
149.1 83.7 40.6
197.9 110.8 40.2
218.8 114.9 48.8
202.2 125.4 32.4
207.8 139.9 39.3
219.9 143.1 37.5
207.0 139.2 38.9
229.6 136.0 32.1
231.8 136.9 50.7
234.1 138.4 62.1
31.6 19.0 7.9
59.8 37.6 8.1
64.5 33.9 13.2
107.9 59.0 24.6
132.0 92.0 31.0
138.2 81.1 25.7
164.6 88.4 25.9
172.5 108.8 26.1
186.4 123.1 28.2
197.2 100.4 37.4
197.2 122.4 34.2
198.6 109.6 48.5
201.0 132.1 40.8
224.2 130.8 36.4
225.1 117.2 51.4
227.4 141.9 42.9
234.1 136.6 38.3
245.6 128.8 40.1
238.4 144.5 61.5
238.4 144.6 61.8
241.0 154.5 33.0
98.1 63.1 24.0
101.1 68.2 15.8
138.8 81.7 30.5
155.0 93.1 30.2
185.8 106.4 39.2
189.6 110.4 51.2
222.6 122.5 38.5
218.2 121.8 49.7
214.2 129.0 34.6
207.0 132.4 58.4
229.5 140.4 31.7
241.8 136.5 36.7
241.2 145.8 40.6
238.8 136.9 53.4
98.6 56.0 20.7
99.5 59.8 17.6
117.9 74.8 30.1
119.8 74.2 27.0
139.2 75.8 24.5
149.5 81.6 36.7
155.9 100.1 39.4
154.4 99.4 34.5
174.6 98.4 28.2
160.6 83.1 30.9
177.9 101.1 39.8
175.0 116.9 39.9
224.5 118.3 42.6
220.2 145.9 48.5
226.8 124.4 36.6
226.5 127.1 29.9
227.9 127.2 34.0
232.9 128.5 60.9
234.6 131.2 53.5
234.9 131.1 53.6
234.6 131.2 53.4
235.1 131.2 53.8
234.8 131.4 53.6
89.1 55.2 25.9
74.5 51.7 16.5
105.7 59.7 20.7
117.0 78.0 30.2
136.0 77.8 21.5
171.9 99.9 22.8
154.4 86.0 32.6
173.2 108.2 45.2
177.6 109.9 32.5
179.4 124.9 43.0
193.6 120.2 50.5
203.4 137.1 36.2
224.8 126.6 38.0
224.8 126.6 37.9
224.8 126.2 37.8
224.8 126.5 37.8
206.1 140.1 38.5
228.0 119.9 35.8
236.4 130.8 50.2
238.5 131.4 52.9
238.1 155.1 56.5
93.6 50.2 16.5
74.2 41.0 11.1
114.8 64.6 24.3
115.8 77.8 27.5
115.8 77.8 27.6
194.9 102.1 38.8
185.9 119.2 37.3
194.5 101.9 35.9
208.6 116.3 29.7
213.0 121.8 43.4
216.6 114.0 49.7
206.8 138.9 36.8
225.0 141.1 35.8
237.5 143.6 30.6
78.2 51.8 13.5
140.4 77.2 22.5
139.0 78.8 33.2
142.1 93.9 37.2
194.2 108.2 40.4
194.9 110.8 25.7
180.4 120.7 37.5
176.5 102.6 34.3
222.9 124.9 39.7
208.9 131.6 55.8
228.9 117.4 41.1
233.1 142.1 41.9
76.3 50.8 11.9
174.5 100.0 46.2
102.6 69.1 23.2
119.6 73.1 30.8
140.4 76.4 22.8
140.5 76.4 22.7
145.5 82.8 32.2
146.9 95.9 40.9
153.6 97.2 25.4
153.9 97.4 25.6
153.4 97.4 25.4
170.0 103.3 47.8
191.6 115.1 46.2
157.2 101.2 40.2
221.1 125.8 38.7
220.8 125.6 38.9
221.2 125.8 38.6
222.1 125.7 37.7
220.6 125.6 39.1
221.1 125.8 39.4
221.2 125.2 38.7
221.5 125.4 38.0
220.4 126.0 38.7
224.1 134.2 35.0
202.4 127.4 33.3
224.9 121.9 52.6
230.8 131.6 53.0
234.0 151.9 32.4
96.0 61.7 24.3
29.7 18.2 5.5
29.7 18.2 5.5
77.2 48.0 19.2
79.4 46.2 20.8
75.1 50.4 11.7
75.1 50.3 11.7
116.4 69.3 32.4
137.6 83.4 23.3
137.8 88.2 28.1
172.0 99.6 40.2
160.8 92.8 32.8
175.0 104.4 37.1
177.5 101.2 40.2
177.9 101.4 39.8
177.0 101.2 39.7
177.5 101.3 40.3
177.9 102.1 40.6
177.5 101.9 40.5
177.4 101.1 40.6
177.5 101.2 40.2
177.4 101.1 40.3
177.4 101.4 40.2
177.4 101.2 40.0
191.5 114.0 29.8
175.4 102.9 29.7
207.8 144.5 45.7
232.2 138.5 33.2
239.5 137.1 53.9
232.2 154.1 53.4
92.9 58.8 26.8
96.8 55.8 25.4
80.4 46.4 21.2
82.5 47.6 19.2
13.8 8.1 2.7
180.0 96.4 40.4
100.1 53.2 17.3
119.3 81.6 28.6
186.9 104.7 40.2
190.1 103.8 36.8
177.2 112.1 40.0
190.4 112.5 34.4
188.1 116.6 41.5
188.9 115.1 54.0
153.5 103.1 33.2
212.8 117.8 30.4
223.6 141.6 41.2
221.6 147.8 35.9
209.5 126.3 41.9
236.2 140.8 49.5
93.1 59.1 19.9
95.4 62.3 22.2
96.4 60.7 24.5
80.9 47.0 14.4
27.7 15.6 4.0
119.1 72.7 29.5
123.1 72.1 31.8
139.5 79.7 21.8
143.4 89.0 25.0
136.4 81.8 34.1
147.0 75.4 30.0
156.9 97.6 40.7
181.8 109.6 28.0
196.5 126.4 34.6
166.5 102.4 20.8
226.1 123.7 38.7
226.5 137.1 35.1
226.6 137.4 35.0
226.9 137.1 34.8
234.0 131.9 37.7
225.4 136.1 33.2
89.2 51.9 18.8
169.9 116.7 36.3
195.6 107.0 28.1
195.6 106.9 28.1
207.9 141.5 34.2
204.2 125.9 31.3
210.9 141.9 38.4
213.2 147.8 47.4
219.6 151.6 39.4
97.6 52.7 24.0
72.8 44.1 12.1
76.8 51.9 12.1
172.4 99.0 43.5
130.6 67.0 26.8
157.6 85.8 30.8
168.8 96.9 43.8
175.1 93.4 26.8
177.0 108.9 29.9
177.5 101.8 39.3
177.0 109.8 30.1
195.8 136.1 45.5
210.8 108.2 40.6
220.2 135.4 38.1
224.1 130.6 32.2
208.2 145.0 40.9
233.1 130.2 38.4
230.8 146.1 45.3
85.8 46.3 22.2
52.6 31.6 12.0
122.6 74.8 23.2
106.7 60.9 28.8
173.5 99.9 26.7
197.4 118.1 24.7
197.1 109.4 49.1
181.0 106.1 47.8
211.9 124.6 30.7
213.0 115.6 40.5
239.4 138.5 33.3
235.6 137.6 48.4
237.1 147.5 44.7
88.1 57.7 22.5
97.9 64.6 24.0
75.7 42.2 15.6
119.6 77.7 28.2
135.4 69.2 24.4
129.9 76.5 29.3
138.1 90.0 30.2
155.1 99.6 33.0
172.8 107.1 31.1
177.2 110.8 39.5
185.8 109.1 34.4
185.8 109.1 34.4
190.9 106.1 27.7
208.6 123.3 55.2
202.1 128.5 33.1
222.5 126.9 49.6
210.6 127.4 55.7
210.1 127.4 55.9
210.6 127.5 55.5
210.5 128.0 56.1
210.6 127.4 55.6
210.6 127.2 55.4
210.6 127.4 55.5
238.4 145.8 30.2
238.2 145.8 30.1
87.2 55.5 23.8
97.1 62.9 19.8
96.4 54.4 25.1
92.1 58.1 26.6
48.6 33.0 9.7
114.7 65.9 30.7
118.7 73.2 34.4
128.8 76.8 18.6
126.9 76.9 32.8
175.4 113.5 29.2
192.2 119.0 35.0
186.0 116.3 44.1
186.2 113.6 53.5
186.8 128.6 36.4
152.0 103.0 24.5
204.4 118.9 42.5
206.2 122.2 40.3
210.6 113.9 29.7
207.8 142.0 35.1
216.5 138.5 38.1
229.9 128.8 50.2
90.0 54.6 17.0
36.3 18.8 7.2
83.4 50.3 10.9
106.2 69.7 21.2
112.4 73.9 26.4
174.8 106.1 24.4
176.9 104.9 41.1
209.1 114.5 42.3
209.2 114.4 42.2
222.4 118.4 37.0
201.5 116.6 30.8
217.1 113.7 50.5
212.2 126.2 39.2
235.6 141.9 48.6
89.6 51.4 24.7
78.8 46.4 12.3
132.4 74.7 23.3
146.8 93.6 23.1
134.0 87.8 30.7
174.4 98.6 33.1
223.6 120.6 42.3
210.0 116.1 44.0
206.5 123.5 56.7
209.0 144.8 38.0
237.2 122.4 45.9
225.2 135.8 33.1
231.5 141.1 36.8
237.9 145.2 69.2
97.8 52.9 15.4
30.0 19.0 7.4
82.6 49.6 11.6
80.4 50.8 20.2
80.2 51.2 20.2
80.2 50.9 20.3
80.2 50.7 20.2
80.6 50.7 20.4
80.3 50.5 20.2
173.6 96.3 44.5
173.8 96.0 44.5
130.2 76.1 21.1
143.5 97.8 36.8
147.9 76.6 32.6
150.0 84.3 19.4
152.1 82.9 37.3
169.4 102.1 39.7
201.0 109.1 49.2
204.9 123.7 58.7
204.1 130.8 31.8
240.4 141.5 63.7
244.9 143.8 54.8
98.6 66.8 19.4
134.4 76.4 18.0
140.2 93.6 24.0
156.2 92.6 24.4
177.4 120.2 47.4
192.5 123.0 34.5
153.0 102.3 35.2
200.9 130.4 40.8
218.6 151.2 39.2
230.2 127.8 61.6
87.2 47.6 15.2
82.1 53.7 22.1
87.7 59.4 17.1
86.9 51.6 12.9
93.1 58.8 26.9
72.4 40.5 13.2
80.1 49.8 11.4
107.2 58.4 20.1
116.8 72.7 18.9
103.7 69.6 15.9
133.1 75.4 18.9
129.8 76.1 22.2
159.6 96.9 37.7
172.5 95.8 26.9
165.1 88.9 35.2
190.1 122.1 39.2
183.5 112.6 39.1
170.4 103.9 35.5
213.5 126.6 47.4
211.2 125.2 55.0
211.1 125.2 54.8
234.5 124.9 35.2
237.1 147.4 42.6
249.2 135.9 65.1
230.5 154.5 52.8
91.9 57.1 25.6
91.9 57.0 25.6
91.8 56.8 24.9
54.5 31.0 8.1
79.8 46.3 21.1
81.3 50.5 15.4
27.0 14.9 5.7
107.1 60.8 19.8
133.5 74.4 19.7
156.8 86.8 29.8
163.4 92.7 39.9
166.9 88.6 31.3
171.4 94.8 29.0
154.0 100.9 27.4
210.0 119.2 38.0
218.5 113.2 42.3
215.2 130.0 29.3
207.1 126.4 26.2
206.0 139.8 38.0
247.4 142.6 42.3
245.0 133.2 60.8
87.6 51.8 14.3
94.2 60.0 26.0
69.9 38.6 9.3
79.9 46.9 19.1
100.0 51.9 17.8
99.9 51.8 17.8
133.2 78.8 28.3
136.9 85.4 30.1
175.4 106.2 37.5
164.1 106.4 36.2
212.8 128.9 39.2
201.2 134.2 46.8
225.9 123.0 56.0
225.5 140.9 32.6
232.5 133.0 44.8
232.8 132.9 45.1
236.6 152.2 57.2
92.3 59.5 15.1
117.9 81.8 27.6
117.9 81.8 27.6
127.3 76.2 32.7
137.5 85.2 27.9
182.8 116.6 37.4
198.0 112.4 39.2
175.1 104.2 34.6
189.6 114.5 33.3
193.8 127.6 42.8
152.9 101.1 24.2
203.5 114.2 36.3
223.8 126.9 38.1
208.6 145.6 42.9
238.0 142.4 63.1
246.4 136.2 58.8
85.1 49.1 23.7
88.4 52.1 20.3
98.3 64.3 24.2
96.1 65.4 25.1
32.9 21.7 9.1
51.7 30.5 13.1
13.1 9.0 3.1
27.1 14.9 5.3
148.8 85.2 31.6
199.0 125.8 54.6
200.9 109.6 39.3
204.5 118.2 57.6
219.9 135.6 33.0
239.8 140.4 32.2
233.0 129.5 35.1
237.4 146.0 68.3
92.9 60.3 24.8
87.7 58.7 20.6
89.9 51.2 24.3
98.6 55.8 25.7
81.4 50.0 12.3
81.2 50.2 12.3
111.5 76.4 20.4
133.9 75.8 31.7
172.6 93.4 45.3
178.9 103.3 47.7
163.9 104.4 27.3
163.4 105.8 42.3
163.5 105.8 42.3
217.9 113.4 42.2
213.9 110.4 42.3
214.1 110.7 42.5
219.5 118.1 45.6
201.6 110.6 48.1
211.4 143.8 39.5
212.1 125.8 55.3
228.4 137.8 35.6
225.4 135.6 33.2
237.2 142.4 37.8
231.9 126.9 32.7
235.6 135.0 52.2
235.9 152.1 53.1
98.4 68.2 23.7
92.5 59.5 25.5
120.4 63.3 29.2
126.4 72.5 24.4
158.6 87.2 30.4
188.2 121.4 29.2
176.2 110.9 40.2
181.0 120.9 34.1
188.8 119.9 37.2
188.8 120.4 37.1
188.4 120.1 36.8
197.9 112.2 33.8
164.6 101.2 28.4
217.0 121.1 38.9
206.4 120.0 39.2
204.1 113.3 37.2
203.2 118.2 28.7
221.8 141.5 37.3
231.9 135.9 37.5
231.9 135.6 37.4
234.5 130.0 31.3
231.9 129.1 33.0
237.2 138.4 40.9
97.9 58.3 23.3
85.7 57.4 15.1
92.4 62.9 15.7
92.4 62.9 15.7
130.0 68.4 26.3
135.2 76.3 21.6
149.1 94.9 21.3
180.6 121.8 37.1
180.6 121.9 37.2
195.9 127.4 34.1
201.1 106.9 38.1
222.9 124.1 40.1
205.2 123.8 30.7
226.1 122.9 48.8
230.0 131.4 41.7
232.2 152.4 49.5
84.8 54.7 20.4
86.9 52.7 13.5
95.1 59.1 25.5
95.1 59.1 25.5
77.2 51.5 12.2
175.6 97.2 46.4
140.5 77.0 22.6
125.5 76.6 32.3
143.2 91.4 39.6
156.8 97.3 30.1
156.4 89.0 30.5
168.9 98.1 43.6
170.1 89.0 32.3
185.1 123.6 31.3
198.4 110.8 39.2
192.8 129.1 46.8
161.8 105.8 44.6
218.2 115.6 35.8
208.5 106.9 41.0
220.4 144.1 39.4
202.2 134.0 42.7
216.9 139.0 39.8
218.4 126.4 46.3
240.6 129.5 35.7
87.3 51.4 14.6
75.6 41.8 16.3
83.5 49.2 16.0
178.0 99.1 29.8
135.9 80.1 29.7
188.5 116.8 43.9
185.4 128.1 35.2
154.4 101.2 40.8
199.9 110.8 39.4
207.0 138.1 37.4
212.2 134.5 35.4
208.2 130.2 59.2
223.2 152.9 39.2
231.8 130.5 32.2
240.9 148.9 37.9
228.4 132.6 64.5
238.1 148.1 61.0
226.1 156.1 51.5
93.6 62.4 16.1
90.4 60.3 16.1
85.6 55.8 16.4
97.1 65.2 24.1
92.3 57.7 25.3
100.8 57.2 16.5
117.3 67.2 15.6
117.3 67.3 15.6
146.1 97.1 24.2
143.2 80.2 27.9
142.6 98.1 36.8
184.4 124.8 45.8
178.4 115.4 41.6
190.2 115.9 52.1
195.2 127.3 36.2
203.9 111.1 40.5
214.9 142.8 37.1
205.1 129.5 29.8
209.8 126.4 42.7
226.8 122.7 39.3
241.9 143.0 32.9
93.7 60.7 20.2
38.8 26.7 7.8
174.2 95.4 46.1
174.2 95.4 46.2
118.2 72.4 28.9
135.5 69.1 26.7
154.6 95.4 26.1
183.5 115.4 35.8
191.8 106.9 28.4
191.8 119.2 45.3
176.0 116.2 40.2
206.0 119.4 55.2
203.5 138.6 36.5
233.5 134.8 38.1
230.9 144.5 30.1
224.9 128.9 33.8
229.9 145.9 62.2
238.6 147.5 62.0
85.5 58.5 17.6
89.8 57.1 16.4
69.3 44.6 16.0
116.2 76.2 29.2
125.1 71.0 34.8
141.1 95.2 23.3
139.2 91.2 26.8
173.6 95.2 27.9
174.5 98.4 33.1
197.8 132.5 36.8
197.2 126.9 35.4
216.2 121.7 32.7
223.1 120.8 39.3
209.4 130.4 41.8
207.8 140.8 38.8
217.0 148.4 50.1
204.4 128.0 49.9
225.6 119.5 34.2
233.4 134.6 31.5
86.6 48.7 18.1
94.6 59.2 17.6
93.0 59.5 24.7
85.9 50.4 15.0
113.4 60.8 16.7
141.1 94.5 21.8
148.6 92.1 27.6
174.9 105.8 24.3
174.4 107.2 33.2
186.9 105.2 23.9
178.0 116.3 32.0
178.8 114.9 40.9
195.4 114.1 45.8
185.9 122.8 31.6
211.0 108.2 37.4
208.5 138.0 36.6
208.4 138.2 36.8
208.4 138.5 36.8
208.8 137.9 36.4
208.4 138.2 36.5
208.6 138.2 37.0
208.5 138.0 36.6
208.6 136.6 36.7
208.5 137.6 36.8
208.5 138.1 36.5
208.6 138.0 36.6
213.9 143.2 51.2
225.6 121.9 39.5
234.6 131.6 50.5
234.2 134.8 53.3
89.2 53.0 17.5
89.1 52.9 17.5
85.7 57.9 16.9
85.1 50.5 11.3
76.1 45.1 15.3
77.1 51.7 12.2
76.9 51.8 12.3
113.8 63.5 14.8
131.6 77.1 18.7
137.8 81.1 32.4
159.2 81.8 29.9
173.6 88.9 31.0
185.5 118.4 37.8
180.5 105.9 48.5
216.9 120.9 28.2
220.5 137.2 33.2
212.1 130.9 53.5
215.0 127.1 50.6
226.0 116.2 42.8
238.9 131.9 35.2
238.9 132.4 35.2
238.5 131.2 35.2
238.5 131.1 35.1
239.4 132.0 35.4
238.8 131.8 35.3
238.8 132.1 35.1
243.6 144.1 42.7
88.9 47.1 13.2
82.7 43.1 18.8
134.6 72.4 23.1
133.5 75.2 27.4
130.0 86.4 34.2
147.8 91.2 28.8
168.8 96.3 24.2
220.6 117.4 46.3
227.4 126.1 43.0
241.8 140.8 66.2
53.2 29.4 11.6
102.4 66.8 24.7
106.9 65.1 13.5
110.2 68.7 30.3
118.1 82.4 27.7
147.1 87.9 37.7
153.0 93.2 19.9
163.5 89.2 35.4
163.5 99.4 39.4
170.0 114.7 33.8
165.8 103.9 41.6
165.8 103.9 41.6
223.0 123.5 40.0
209.0 136.2 52.2
229.2 126.0 37.3
86.2 47.4 19.7
96.9 59.8 23.2
76.3 43.0 12.3
127.8 74.8 20.3
141.5 93.4 25.2
171.4 99.1 21.7
181.1 115.4 35.8
183.5 119.4 42.6
195.6 115.2 32.8
199.5 135.4 36.5
143.0 100.2 31.4
165.6 104.8 42.7
200.5 110.7 39.8
209.2 135.2 39.1
216.4 129.4 35.9
224.1 129.8 36.0
213.8 146.6 49.6
205.6 127.2 53.4
234.5 135.4 45.4
232.8 128.9 57.2
232.8 128.9 57.2
242.6 135.2 57.3
86.0 56.6 14.6
92.3 52.8 13.6
97.4 56.6 25.5
82.5 49.7 11.1
107.3 56.2 20.0
127.2 84.1 33.2
127.2 84.1 33.2
146.2 88.8 40.2
157.9 85.6 26.8
175.9 92.0 30.3
197.4 114.3 36.0
193.8 118.6 33.5
197.0 129.6 35.3
223.0 120.2 39.7
208.2 138.8 54.8
208.5 137.8 52.9
228.4 124.6 36.0
228.4 125.1 35.4
93.4 57.5 18.2
77.2 43.7 16.5
118.4 74.9 27.6
118.5 75.1 27.5
134.5 71.2 23.5
137.6 85.0 27.8
163.1 99.8 24.7
163.1 99.7 24.8
150.2 88.6 31.0
153.0 89.6 26.8
163.9 97.4 41.5
170.6 102.8 34.1
214.8 109.9 42.7
203.6 119.2 55.7
206.8 142.9 41.9
212.1 136.9 36.9
234.0 145.2 43.8
234.0 135.4 47.3
94.1 60.3 21.3
99.4 62.9 23.5
53.6 29.1 11.6
82.9 50.4 15.2
127.0 85.1 32.8
152.0 84.2 32.7
184.2 109.9 34.6
183.2 109.1 39.0
217.2 114.6 49.6
214.0 123.4 53.6
201.0 137.0 37.1
224.2 139.4 33.3
220.8 132.4 50.1
224.1 155.5 52.3
233.5 125.0 35.8
234.6 148.8 31.1
236.2 153.8 33.3
234.1 156.4 51.4
90.8 53.8 20.8
54.8 30.7 8.4
82.9 45.2 16.9
77.9 53.1 13.3
81.0 50.3 15.7
123.4 75.0 31.0
119.9 79.9 25.1
137.8 78.2 20.0
139.1 83.7 27.6
150.6 89.4 36.9
156.2 97.6 41.1
157.9 90.6 27.6
193.2 116.4 31.2
179.2 118.1 44.4
185.5 118.7 30.9
180.0 115.9 40.3
213.6 122.1 35.2
213.6 110.2 48.5
216.5 123.2 52.8
229.6 139.0 35.7
98.9 61.0 26.5
101.2 58.4 17.0
124.7 68.1 25.8
111.4 75.8 23.3
116.2 78.9 28.4
115.0 77.7 28.7
149.4 89.6 19.0
130.5 86.0 33.6
138.1 80.8 27.4
156.0 87.2 20.6
151.0 85.1 35.5
163.9 89.4 35.3
175.5 101.6 22.1
192.1 106.8 34.0
189.4 116.4 36.4
176.1 101.9 35.8
197.8 137.1 42.8
155.4 103.2 38.0
216.4 124.6 41.4
199.9 114.1 35.6
228.8 123.6 36.8
9.7 5.4 1.5
9.7 5.5 1.5
9.5 5.4 1.5
118.0 77.5 24.6
133.0 75.6 18.6
139.8 89.6 27.7
139.5 89.3 27.9
139.8 89.4 27.7
139.4 89.9 27.6
148.2 87.0 34.9
137.1 76.4 26.6
192.1 107.5 33.8
199.1 135.1 37.3
163.2 102.6 29.9
219.5 131.6 37.1
206.4 139.4 36.8
209.6 128.8 55.2
240.9 154.5 33.1
96.6 65.8 24.5
96.1 62.7 25.3
108.2 59.2 27.3
128.4 75.4 17.0
170.9 117.7 33.2
169.9 101.6 41.6
222.9 118.8 42.1
206.6 125.4 34.5
238.1 137.5 43.2
235.1 145.4 61.3
236.0 153.6 32.6
95.6 49.4 16.9
96.1 65.3 24.8
95.0 61.9 25.1
72.8 44.4 18.6
82.9 46.5 11.4
82.9 46.5 11.4
78.8 51.9 12.5
118.5 72.4 19.4
147.9 77.7 34.6
155.6 86.6 30.6
155.1 85.8 32.8
156.0 82.8 32.2
174.2 103.2 36.2
174.9 104.2 34.4
189.2 124.1 45.6
175.0 109.8 40.9
183.1 104.3 37.1
192.1 120.1 38.8
163.5 101.3 23.5
219.5 137.2 28.7
231.2 128.6 37.0
228.8 126.9 48.0
228.5 126.9 48.1
90.4 55.2 19.6
92.2 57.0 19.3
63.6 43.6 14.4
80.1 46.7 17.4
115.5 69.9 16.9
120.8 82.4 31.7
151.2 98.2 42.7
155.6 87.1 35.7
165.4 88.9 35.1
165.4 89.0 35.2
176.9 94.6 29.3
174.9 102.1 27.9
198.2 106.4 33.8
175.6 104.9 30.9
175.5 105.2 31.0
218.0 118.8 35.6
207.8 108.8 33.3
213.4 123.0 43.8
221.8 119.4 43.8
221.6 120.3 43.8
221.8 119.4 43.6
221.8 119.2 43.8
221.1 120.3 42.7
221.1 119.6 42.6
222.4 118.7 43.0
221.8 119.4 43.8
222.0 120.2 43.2
221.6 119.2 43.8
221.6 119.5 43.5
221.6 120.5 43.6
222.6 119.4 43.4
221.2 119.4 43.9
222.0 119.7 43.6
222.0 119.6 43.4
221.8 119.4 44.1
221.4 119.8 42.1
221.6 120.1 43.0
222.5 118.7 44.2
221.8 119.5 43.8
221.6 119.1 43.4
221.2 119.5 43.4
221.8 120.9 43.1
221.8 119.5 43.8
222.0 119.1 44.3
221.9 119.7 43.8
201.1 132.0 34.8
231.5 134.6 40.1
228.0 131.1 39.5
98.3 64.4 23.6
98.4 64.2 23.7
70.2 43.8 14.1
76.2 49.3 15.8
75.6 46.2 20.8
80.4 53.6 14.4
119.8 76.4 28.2
131.6 67.2 28.7
138.9 88.6 26.8
164.6 88.9 35.4
193.1 118.2 44.7
175.6 112.2 30.3
194.4 128.9 36.2
194.4 129.0 36.2
162.2 105.6 43.9
220.5 116.6 42.6
223.6 124.0 39.7
217.4 135.8 37.2
216.8 148.5 50.8
240.0 143.8 67.2
231.2 127.8 59.1
234.5 133.8 51.8
245.1 132.8 60.7
87.3 53.0 20.4
38.7 21.4 6.0
79.0 43.3 10.6
123.2 73.7 24.2
130.8 76.2 19.0
140.4 90.4 38.9
174.8 101.9 27.0
165.1 104.1 42.4
224.4 120.1 43.4
206.5 140.9 39.3
209.5 130.0 55.0
232.1 133.4 46.1
85.2 58.0 16.1
99.1 67.9 24.5
65.4 45.1 15.3
139.2 87.9 37.8
133.2 80.6 34.5
159.1 99.9 20.5
215.8 114.6 41.8
210.4 139.4 38.8
216.9 128.2 46.0
225.2 122.4 58.7
241.2 128.9 35.6
242.1 129.2 61.1
96.1 57.5 15.7
72.1 49.3 12.2
56.2 30.1 12.8
123.8 71.0 32.0
111.1 75.3 23.3
144.4 97.3 31.0
171.9 89.1 37.5
169.5 89.7 33.5
187.4 119.3 43.8
185.1 113.1 51.9
158.8 102.3 40.2
160.4 103.6 29.9
203.1 116.8 42.9
207.2 110.4 39.7
209.9 144.2 44.6
210.5 128.1 46.2
211.8 142.0 50.9
233.1 136.8 36.9
97.0 66.7 24.2
63.5 42.2 12.8
112.1 68.8 14.6
135.8 77.6 21.5
133.8 81.3 36.0
152.4 92.4 19.1
165.2 87.0 25.2
154.5 79.3 28.6
151.1 79.2 26.7
166.0 91.4 32.9
168.5 90.1 33.9
174.1 100.6 35.5
175.2 103.0 30.1
185.4 117.8 44.4
221.6 115.9 52.0
221.6 115.9 52.0
209.4 137.8 36.2
232.5 133.0 47.4
237.2 146.1 47.2
230.0 153.5 43.3
85.9 49.8 24.2
92.9 52.2 12.9
92.9 52.1 13.1
79.0 46.7 12.5
85.4 46.7 17.8
148.6 87.4 37.3
155.1 90.9 22.2
155.4 85.2 32.4
165.6 84.9 34.4
174.0 110.6 40.0
192.4 113.1 28.4
188.8 110.8 51.0
190.8 104.2 51.1
183.8 126.1 32.8
194.6 132.2 36.3
159.0 101.8 43.8
156.6 108.6 28.6
224.2 139.5 33.2
222.1 135.2 34.2
209.5 127.7 48.8
231.5 124.7 37.2
226.4 145.8 32.1
243.0 135.9 31.5
86.0 57.9 17.3
70.8 43.0 13.7
64.9 36.0 9.7
123.0 69.1 27.4
182.1 112.6 33.6
196.9 112.4 26.4
195.9 100.6 34.9
175.6 103.4 27.7
195.1 133.9 45.7
218.8 120.4 45.6
218.8 120.4 45.6
217.6 120.2 39.4
216.8 135.5 27.6
206.6 143.4 41.9
222.9 126.6 49.5
210.1 127.8 56.1
240.2 130.6 38.9
233.6 136.6 28.9
231.4 128.1 60.8
225.6 135.5 60.4
92.1 59.1 25.6
98.6 59.2 27.8
54.4 31.0 8.6
116.9 80.6 21.7
117.5 77.0 29.6
112.9 78.4 27.5
162.8 99.1 43.8
195.4 119.8 42.2
191.6 116.2 45.1
182.4 102.9 48.8
168.4 104.5 35.4
206.9 143.0 42.3
235.5 124.2 35.8
236.4 135.1 38.6
237.6 141.9 31.4
88.1 58.0 21.7
71.2 45.9 14.3
105.7 60.5 19.2
119.5 74.6 27.3
119.6 73.8 27.6
119.8 74.9 27.4
119.9 75.0 27.6
119.5 74.6 27.3
119.9 74.4 27.4
119.4 74.6 27.1
119.5 74.7 27.4
119.7 74.7 27.5
119.4 74.7 27.1
136.2 89.4 27.7
152.5 95.5 23.6
155.1 82.4 29.1
164.1 90.8 38.2
191.5 106.2 28.5
219.6 124.8 37.0
202.6 106.3 43.8
202.6 106.4 43.7
207.5 140.8 36.6
224.4 134.9 63.8
240.4 130.6 35.8
225.2 152.2 38.7
87.4 58.7 20.3
94.0 56.9 16.3
83.9 50.0 10.4
80.8 50.5 13.1
116.0 69.6 16.5
116.0 69.5 16.3
122.1 81.8 32.1
120.6 79.4 25.2
118.4 82.2 28.2
118.3 82.2 28.4
146.6 91.2 22.5
139.2 85.6 28.6
153.1 90.8 23.7
154.9 94.4 25.6
174.1 95.3 28.5
175.1 102.7 28.2
226.4 123.1 47.2
233.8 143.5 66.7
231.6 129.9 51.5
90.2 55.9 19.3
86.0 56.8 14.8
90.8 50.6 18.1
78.9 43.6 12.6
84.6 49.9 14.8
112.2 58.8 25.2
145.0 95.9 25.6
139.2 93.6 25.6
147.2 78.0 32.4
156.9 96.7 27.3
203.6 106.4 42.6
207.0 126.8 30.7
229.4 132.4 42.8
240.5 131.9 54.8
230.9 153.2 40.1
89.9 54.8 15.3
87.1 56.9 23.8
98.8 66.7 23.8
73.3 49.4 11.6
52.6 31.5 11.0
70.3 43.1 13.0
79.8 47.6 16.8
79.7 47.7 17.0
102.8 62.1 15.4
102.1 55.3 24.3
134.9 71.8 29.6
178.2 112.2 38.8
187.6 122.4 51.8
187.6 122.2 51.6
206.2 128.5 33.4
203.4 139.0 37.9
201.0 128.2 26.5
217.2 136.5 48.3
217.4 136.4 48.4
228.5 126.1 37.3
238.6 139.4 35.6
97.4 65.1 23.9
88.4 55.3 25.5
72.5 39.9 9.7
81.1 44.8 19.0
80.7 44.4 19.2
81.2 44.8 19.1
80.9 44.7 19.1
81.1 44.6 19.0
81.1 44.6 18.9
81.1 44.7 19.0
81.1 44.8 18.9
122.7 74.1 24.8
131.2 76.2 16.7
148.8 90.4 19.4
145.2 89.8 28.0
130.4 79.8 30.5
152.4 84.6 34.5
160.4 92.4 40.0
185.9 101.1 47.9
151.0 101.6 38.1
201.0 107.6 37.3
201.0 107.6 37.3
237.9 133.6 32.1
244.0 136.5 56.0
99.5 51.5 23.3
59.5 37.6 14.5
79.9 50.5 19.8
81.9 53.2 12.7
186.0 99.2 38.6
136.9 94.0 27.0
152.2 88.4 29.6
156.2 92.3 42.0
161.1 85.6 33.7
171.0 96.0 44.4
175.4 106.4 38.2
163.2 100.3 25.6
219.1 114.7 50.9
216.0 150.6 49.8
237.4 137.1 39.4
227.0 134.5 61.7
230.6 158.4 52.1
95.1 48.8 19.6
96.1 61.6 23.0
87.1 60.5 21.2
67.6 45.2 14.8
103.9 53.7 21.1
114.9 61.7 23.7
138.1 92.6 27.4
142.0 89.4 25.5
155.9 90.8 30.1
169.6 89.5 36.4
163.5 84.8 36.1
238.1 137.8 39.5
230.6 133.0 30.0
91.0 53.8 20.6
100.9 56.5 16.7
122.6 74.9 30.9
144.1 92.4 28.9
153.1 97.4 25.3
164.6 97.5 31.4
188.6 111.0 24.8
178.0 102.1 43.8
176.1 107.4 37.0
192.0 120.2 46.4
177.9 115.6 32.2
213.6 118.4 30.0
210.8 133.9 32.2
210.6 129.4 37.6
211.9 129.8 49.2
229.5 117.4 41.3
236.9 137.8 39.6
236.9 137.5 48.1
240.2 149.8 38.5
245.4 144.9 45.3
93.4 53.1 15.6
26.5 16.1 5.1
138.0 80.1 23.5
171.5 98.8 42.8
180.5 115.8 42.8
192.1 123.1 32.7
170.2 101.9 42.0
200.5 108.6 51.9
207.8 140.1 39.1
207.9 142.4 47.7
229.5 117.4 40.9
239.9 141.0 37.2
234.5 133.8 32.7
243.6 160.2 35.4
243.6 160.9 35.8
243.8 160.1 35.5
243.8 159.9 35.3
243.2 160.2 35.5
243.5 160.2 35.6
243.4 159.9 35.3
243.4 160.5 35.2
243.2 160.0 35.4
243.6 160.4 37.5
243.1 161.4 35.8
243.1 159.2 35.5
94.9 61.8 20.9
95.3 57.9 16.5
93.8 62.3 25.9
83.0 49.9 10.9
176.2 93.2 42.9
128.8 76.8 29.5
138.6 76.6 33.7
174.4 97.2 29.1
172.8 100.9 43.2
204.2 138.9 37.2
209.5 137.2 34.3
212.9 139.6 37.8
200.0 126.9 31.0
220.9 134.5 37.9
220.9 134.5 37.9
207.8 138.6 36.7
201.6 128.5 48.5
230.0 125.6 35.5
231.0 127.4 34.8
237.9 142.4 33.7
237.9 142.4 33.8
233.2 139.8 44.2
229.6 127.6 48.7
227.5 127.4 48.9
231.8 144.4 63.5
240.9 136.1 66.2
236.5 151.6 53.4
92.6 58.8 14.6
182.1 92.7 36.3
104.2 54.7 21.0
115.4 76.9 29.0
146.0 84.7 41.6
155.5 86.8 20.2
156.1 92.7 24.1
164.4 90.4 32.0
185.6 108.6 44.0
181.9 100.4 25.6
195.1 123.7 50.7
168.2 100.3 40.3
203.0 120.5 29.7
212.9 124.9 55.0
216.9 147.0 47.0
209.2 125.4 60.1
231.9 141.5 37.0
248.6 128.9 45.2
241.8 132.4 62.8
241.2 141.0 65.0
93.4 50.5 17.5
93.6 61.5 25.6
92.9 58.2 26.7
56.9 36.7 11.2
79.1 48.0 20.3
78.8 46.8 16.8
132.1 72.6 23.5
148.6 85.7 40.3
135.6 81.9 29.8
186.9 111.0 44.6
184.6 127.4 33.3
199.1 135.0 39.3
158.9 100.9 41.2
157.5 103.6 42.9
209.4 116.3 43.8
209.2 116.2 43.7
218.6 122.4 54.1
217.2 143.6 41.5
231.0 131.6 29.8
234.0 143.9 39.1
229.9 146.6 48.4
228.8 159.5 48.7
233.9 154.0 54.7
135.2 78.9 38.8
125.2 76.4 32.0
166.4 88.8 31.9
181.2 121.0 50.2
167.0 104.4 44.9
216.6 119.6 31.0
208.2 124.1 30.3
207.5 124.9 30.7
206.4 140.0 37.6
206.5 140.0 37.5
220.0 135.5 36.8
218.6 146.1 45.6
229.0 117.9 39.4
89.9 61.7 21.1
99.4 53.3 15.9
95.6 56.8 18.0
87.8 51.7 11.3
91.9 56.9 25.2
84.3 48.5 17.5
83.2 50.7 14.8
191.5 98.2 42.6
175.0 100.1 49.4
175.0 99.9 49.4
123.0 73.4 18.8
132.6 73.1 32.0
137.0 90.3 29.1
136.1 93.0 32.3
156.4 86.9 22.6
153.8 85.3 35.6
175.4 109.1 39.7
191.5 113.5 31.7
175.4 101.1 37.3
163.4 101.1 26.6
200.9 121.5 39.3
243.1 144.0 42.6
87.6 58.6 22.2
92.6 59.5 25.3
92.6 59.5 25.2
102.1 65.1 17.3
133.2 73.0 32.2
174.8 115.9 43.3
188.1 117.1 33.1
182.6 114.9 44.9
191.6 118.5 48.8
157.5 105.1 39.5
222.9 123.9 39.3
215.4 149.9 46.4
230.5 124.6 36.8
225.9 148.6 40.1
244.1 145.6 42.1
232.4 134.8 51.3
93.8 52.2 14.8
86.9 51.2 12.1
78.3 44.2 10.3
174.8 99.8 46.3
174.6 99.9 46.1
107.2 72.2 21.3
118.4 79.3 21.6
141.5 77.7 22.6
140.5 75.6 23.7
158.9 94.2 40.2
152.8 95.9 42.2
152.6 96.0 41.9
184.8 105.6 38.8
194.8 124.7 35.2
194.8 124.9 35.0
195.9 117.3 25.8
193.6 126.9 42.2
217.6 124.1 28.2
226.5 122.6 46.7
226.5 123.5 43.9
225.1 124.6 37.6
239.2 138.8 33.4
234.5 144.1 45.0
93.3 59.7 25.5
63.7 37.1 10.9
83.0 45.9 20.5
111.8 62.4 26.1
118.8 76.4 28.2
137.9 85.1 22.7
139.6 91.9 25.2
156.6 96.4 40.6
187.9 119.6 42.8
176.4 106.2 37.1
148.6 101.6 28.5
214.6 122.7 35.4
203.4 133.5 29.8
231.4 135.0 31.0
230.1 133.6 39.9
87.0 50.7 12.1
51.9 34.1 11.0
65.1 35.1 10.5
63.6 39.8 8.1
82.8 49.4 11.4
81.2 47.6 12.6
131.8 74.0 33.5
125.9 74.9 35.3
148.6 78.9 23.2
156.0 87.5 28.0
160.6 83.7 32.3
162.0 86.1 37.6
169.5 114.2 36.0
178.0 104.1 28.5
193.1 115.6 29.8
164.6 101.1 26.5
215.4 121.2 29.9
216.1 121.4 30.7
215.5 121.2 29.8
216.0 120.9 30.0
215.5 121.4 30.1
215.2 121.3 30.2
215.4 121.2 29.8
215.2 121.3 29.9
201.6 106.3 50.0
221.0 127.7 38.3
227.6 124.3 36.9
227.0 131.4 29.5
230.0 143.5 60.1
244.9 133.5 59.8
244.5 133.8 59.8
244.8 133.5 59.3
250.1 129.2 46.5
97.1 65.1 23.8
97.3 64.9 23.5
94.9 62.8 25.8
92.2 57.0 26.2
78.0 52.1 13.3
80.4 50.4 13.5
124.3 69.0 25.5
137.2 88.9 28.3
146.6 79.7 36.5
147.0 75.4 29.7
158.8 96.1 37.0
153.6 83.8 37.4
178.0 101.0 39.8
177.9 121.4 45.7
178.6 104.8 44.9
175.1 112.3 32.8
182.1 121.2 48.4
156.4 104.6 34.8
220.1 138.5 32.7
209.2 139.9 39.8
206.9 135.6 54.3
220.1 145.9 53.7
233.1 150.8 53.7
85.9 46.8 18.5
89.9 57.8 21.3
76.7 45.7 15.0
109.0 60.5 22.7
128.8 67.6 31.6
136.6 91.7 35.3
155.5 86.2 22.8
153.1 95.4 41.6
160.2 83.8 31.7
162.1 96.2 33.3
162.2 89.9 35.6
162.2 90.1 35.8
162.1 89.9 35.7
162.2 90.0 35.5
188.9 107.1 38.6
179.4 117.0 43.8
190.6 114.0 41.3
190.5 105.8 26.8
195.5 111.4 26.5
175.8 100.2 29.6
194.0 123.8 36.3
190.2 125.8 51.9
168.4 102.9 40.9
225.9 125.1 46.1
232.9 128.9 56.6
245.6 140.2 52.0
85.6 58.3 18.4
93.1 53.9 26.0
73.4 50.0 12.8
54.5 31.9 14.4
77.9 41.7 11.9
82.9 47.9 18.9
80.9 50.1 16.5
82.6 53.2 13.1
14.0 7.7 2.9
108.8 57.0 20.3
173.1 119.6 39.3
182.9 113.4 31.0
165.1 101.1 36.6
208.4 145.4 40.5
226.6 122.7 47.0
233.8 144.6 39.8
233.9 135.9 33.2
241.8 143.6 38.7
236.8 151.6 33.4
98.3 59.3 23.5
70.9 43.5 12.9
79.6 48.5 16.3
27.2 14.9 5.1
153.4 80.5 36.6
157.9 84.5 27.2
174.6 94.0 29.8
192.8 105.1 31.1
176.1 111.2 42.3
190.6 126.1 41.2
209.8 116.9 44.8
222.1 129.5 42.2
206.2 133.6 34.7
220.9 131.2 39.3
222.1 135.6 63.8
234.4 124.3 34.8
228.0 120.5 34.7
226.5 132.2 30.4
239.0 126.2 36.5
246.1 146.1 44.4
244.1 142.9 58.4
233.6 155.4 63.2
250.5 130.0 52.6
27.7 18.5 5.7
178.0 93.7 43.7
123.9 69.7 32.0
129.1 86.9 33.8
129.1 86.9 33.7
129.1 86.8 33.8
145.5 93.1 38.1
156.9 96.6 32.8
196.6 107.3 27.7
158.5 103.9 40.3
222.9 119.1 42.1
221.8 135.6 34.1
226.6 124.1 44.1
236.0 141.5 39.4
229.0 129.9 32.9
227.4 135.0 44.2
234.5 151.1 33.5
99.0 57.3 19.2
95.2 59.6 27.0
41.2 23.8 9.3
65.6 38.2 13.7
83.8 52.0 10.9
140.4 77.7 30.3
163.6 96.2 24.0
157.9 82.4 34.1
157.9 82.3 34.1
158.0 93.4 40.4
151.1 93.6 42.1
177.5 102.1 39.5
190.5 120.6 37.0
189.2 105.8 27.0
178.8 101.3 47.0
178.8 101.4 47.0
222.9 119.5 42.1
226.9 125.6 36.3
238.2 146.8 33.7
227.4 126.1 34.7
232.4 134.1 41.4
91.8 59.2 25.2
93.9 60.9 26.1
68.9 44.2 15.1
14.2 9.0 3.0
27.9 15.5 6.5
174.9 97.4 45.6
177.4 95.4 29.6
104.1 66.4 14.7
131.6 84.5 34.5
164.5 96.4 24.6
167.8 96.1 44.1
172.1 100.8 43.8
174.9 104.6 41.7
176.0 103.9 27.7
197.2 131.4 35.9
156.2 105.2 32.9
215.1 135.9 31.3
231.0 125.0 35.8
227.5 119.9 39.2
241.5 129.9 36.3
242.4 143.8 40.6
94.9 60.1 22.9
86.8 58.2 21.4
90.1 61.5 17.6
98.0 64.3 17.0
52.0 32.4 13.9
118.4 77.3 24.5
130.8 70.1 23.5
159.0 86.7 31.7
172.1 102.6 35.3
195.4 126.9 35.4
192.4 129.9 50.3
165.0 102.0 24.1
163.1 102.6 34.4
231.1 149.9 38.2
227.5 141.4 33.5
238.5 131.4 35.6
244.8 141.2 48.1
244.9 126.9 57.3
240.4 152.1 58.0
132.4 75.4 21.2
195.0 124.0 34.5
96.5 59.9 24.6
85.8 59.1 18.7
116.4 68.2 32.2
116.4 68.2 32.2
123.2 75.9 31.8
137.2 75.9 26.5
154.2 96.7 38.4
194.5 102.2 38.2
194.5 102.2 38.2
195.0 102.2 37.9
195.0 102.2 37.5
194.6 102.2 38.2
194.8 101.9 38.2
194.6 102.1 38.0
194.1 102.6 39.0
202.9 135.9 33.9
231.9 141.9 44.3
232.8 146.4 59.8
33.7 17.8 6.6
30.3 18.2 6.2
30.3 18.0 6.2
30.3 18.3 6.2
23.4 14.4 3.4
13.1 8.7 3.0
181.2 99.9 32.4
175.4 99.7 25.9
119.6 67.0 30.2
149.6 84.3 19.6
138.9 83.3 28.2
157.1 95.6 35.2
174.9 105.6 24.8
192.1 107.2 25.5
191.2 123.1 41.7
175.9 103.7 27.3
194.1 126.1 36.2
153.2 103.6 36.7
171.2 102.1 27.6
220.0 113.3 42.5
201.8 120.2 52.0
212.8 127.5 53.0
212.9 127.5 53.1
224.2 153.0 39.3
228.4 122.8 38.5
239.6 132.0 31.8
230.1 133.8 39.5
230.2 133.8 39.6
91.1 54.0 20.3
95.2 63.4 19.1
95.1 63.5 19.1
182.0 99.6 37.8
106.8 64.7 14.2
128.4 76.8 31.8
156.5 98.2 24.9
159.4 92.7 44.8
159.5 87.1 41.3
160.6 84.0 32.5
160.9 84.2 32.6
160.6 84.0 32.5
163.5 87.3 34.7
192.0 117.9 47.1
178.8 100.6 39.3
167.0 103.2 41.8
200.4 119.3 40.4
208.0 110.6 40.2
201.5 108.9 49.5
209.9 138.8 42.2
225.2 120.3 42.1
228.6 139.6 35.5
234.6 131.2 30.2
234.6 131.1 30.3
234.5 131.0 30.6
234.4 132.4 30.2
234.9 131.4 30.3
234.6 131.2 30.1
246.1 146.4 45.1
240.2 132.2 62.5
243.2 139.1 61.6
96.9 64.9 25.6
65.4 39.7 14.1
82.3 45.2 20.8
86.6 46.0 13.3
118.5 66.4 16.7
147.6 90.2 20.7
137.5 79.2 22.5
144.4 90.9 24.5
143.2 87.9 41.0
150.2 82.5 39.2
164.2 84.5 37.3
175.9 102.8 25.6
164.8 101.4 25.4
203.5 109.5 37.8
209.1 140.0 39.0
214.0 146.1 44.7
212.6 128.2 52.0
230.9 121.2 38.1
233.1 129.5 61.4
90.8 57.2 15.8
90.1 57.4 25.9
90.1 57.4 25.9
78.6 43.0 11.9
175.2 95.4 46.6
142.4 95.8 37.2
156.4 98.9 41.3
156.4 96.9 40.7
183.2 117.0 43.4
177.2 104.8 41.8
213.8 123.6 53.3
211.0 133.1 46.9
234.2 139.5 39.5
98.2 57.2 22.6
78.8 48.5 12.1
82.2 45.6 21.4
100.2 56.8 19.3
157.5 100.1 21.4
174.9 104.9 25.7
174.9 105.0 25.7
179.6 121.2 33.5
196.5 117.5 30.1
159.1 103.1 44.0
208.8 124.5 60.5
209.1 133.1 30.0
215.1 133.8 36.7
209.4 142.2 45.3
226.4 138.1 31.1
225.9 133.4 30.8
225.5 135.6 36.7
242.8 132.1 38.5
235.0 126.4 58.9
230.6 153.2 45.6
84.8 50.6 14.2
90.6 50.6 22.5
64.6 37.7 15.2
64.6 37.7 15.2
186.9 96.9 38.6
119.6 67.9 17.5
123.5 72.9 27.5
118.4 72.1 31.0
114.2 71.4 30.9
114.6 63.1 27.1
129.2 76.4 23.0
137.9 80.2 27.7
151.9 91.9 42.3
169.9 90.2 35.6
177.1 101.7 23.0
185.4 106.5 23.5
195.0 126.3 34.7
170.9 100.7 26.2
204.8 118.3 40.4
201.5 111.9 31.9
212.8 109.9 39.2
216.4 121.4 48.5
202.1 138.1 36.0
206.2 138.0 40.3
85.9 58.5 17.5
69.6 42.9 14.1
65.2 42.8 12.4
10.3 6.5 1.9
102.6 55.6 21.7
112.9 63.7 14.9
120.6 79.2 30.7
123.7 83.9 31.7
125.1 70.2 29.4
155.8 90.8 24.6
167.1 101.3 21.5
223.8 131.6 31.9
227.2 120.0 44.0
233.0 158.2 39.8
238.0 155.9 56.2
80.1 41.8 14.5
80.0 41.9 14.5
79.4 50.5 19.2
140.8 74.8 24.4
142.2 93.8 24.2
133.8 87.3 19.2
164.6 99.9 30.8
164.5 99.9 30.7
191.5 118.1 47.0
183.4 117.4 38.5
183.4 117.5 38.5
184.1 117.6 38.6
191.8 126.8 48.6
165.2 104.7 42.7
211.5 114.6 30.2
216.0 112.1 51.2
218.4 135.5 37.3
217.1 126.9 35.8
231.5 132.9 53.5
90.2 56.2 16.8
90.3 56.3 16.8
91.9 56.9 25.9
91.8 56.8 26.1
62.9 35.1 8.3
82.1 46.9 19.0
122.1 76.2 18.3
115.3 78.7 30.4
141.2 95.2 22.7
145.0 84.9 27.3
153.4 81.5 36.3
199.6 112.4 43.6
197.6 110.6 47.4
194.4 117.3 32.2
196.1 121.1 57.0
192.2 131.6 34.6
150.4 101.8 38.0
214.0 115.0 38.9
221.6 122.6 38.1
217.1 121.5 31.2
210.2 116.1 44.5
210.2 116.2 44.6
206.1 122.2 55.0
223.2 134.2 35.3
209.0 139.6 40.8
213.0 142.0 45.8
253.0 130.5 51.3
37.0 21.1 5.7
74.5 41.4 17.5
22.7 14.8 3.9
180.9 95.1 32.8
125.4 69.1 27.0
143.4 88.6 39.8
139.4 93.6 26.1
173.4 115.1 44.4
181.0 105.6 48.8
214.5 122.7 35.7
214.9 124.4 46.7
200.4 109.1 48.8
209.1 144.6 41.6
207.9 143.9 47.8
207.8 143.9 47.9
228.8 126.8 48.2
225.9 127.0 51.8
234.4 140.5 67.8
86.6 46.9 20.2
86.7 60.4 18.2
98.1 59.3 15.2
92.6 57.0 20.3
73.5 44.9 14.7
80.1 54.2 14.2
83.8 51.5 11.1
134.8 83.8 33.2
174.9 103.0 31.4
192.8 111.8 44.4
193.2 124.4 36.8
178.6 100.2 44.4
205.0 105.5 42.9
222.6 118.1 42.1
210.9 136.6 32.2
219.6 144.8 43.8
218.5 129.8 38.2
232.2 130.0 50.0
225.6 139.5 59.3
90.3 55.2 20.1
90.3 55.3 20.2
181.1 96.4 34.2
100.1 65.6 14.4
156.8 93.2 37.7
160.9 95.5 32.5
191.2 109.3 42.0
191.1 116.1 30.9
199.2 137.2 36.6
202.5 114.4 26.8
213.2 124.5 45.1
213.5 119.1 50.3
87.9 51.9 15.6
102.4 57.2 23.2
101.6 68.3 16.2
115.0 77.5 28.7
147.9 77.9 33.2
152.6 89.1 24.7
158.5 84.7 25.9
169.4 86.3 35.0
174.9 102.0 27.3
171.5 104.8 43.0
175.5 100.3 36.0
177.9 109.8 33.3
164.6 104.8 36.8
206.8 107.1 41.1
211.9 123.2 26.7
215.5 125.5 32.6
208.5 140.1 52.6
226.4 146.5 31.5
225.9 128.6 51.8
230.2 127.6 58.3
241.8 141.9 66.2
93.4 60.0 20.4
185.4 99.8 39.3
104.2 65.6 25.9
122.0 75.6 23.7
135.8 77.2 29.9
174.8 94.8 27.8
169.0 88.5 32.9
188.2 124.6 31.9
179.8 112.8 47.5
180.0 116.4 40.4
189.6 115.2 34.2
173.5 116.4 39.6
200.4 104.9 45.2
240.9 142.9 37.8
226.4 132.5 60.1
62.6 37.6 11.0
135.9 75.1 30.5
139.1 95.7 25.3
139.5 77.4 22.5
139.5 77.3 22.4
125.0 77.2 30.4
141.9 92.3 25.9
140.8 89.0 29.0
162.5 92.4 31.8
195.9 105.1 36.9
192.9 123.2 36.5
198.4 114.8 34.4
156.2 101.9 30.3
164.8 101.9 28.0
217.0 118.8 46.0
217.0 118.6 45.9
211.1 137.9 39.6
204.5 128.2 45.6
226.4 119.2 39.0
231.5 149.2 37.4
236.5 133.0 31.1
233.9 138.2 42.3
85.9 49.4 15.3
69.9 43.2 14.0
123.9 80.3 31.6
156.6 93.2 23.2
157.5 94.4 42.7
192.4 103.4 31.7
192.4 103.4 31.7
192.2 103.4 31.7
192.4 103.4 31.7
188.4 101.4 35.1
205.4 118.3 40.5
206.6 143.6 41.9
228.5 133.9 31.6
246.4 146.6 46.5
229.9 130.0 50.6
232.5 131.2 51.1
244.5 136.1 56.3
93.4 62.3 15.7
93.6 61.9 15.7
93.2 62.4 15.8
93.2 62.3 15.8
93.5 62.3 15.6
93.2 62.9 15.7
93.4 62.3 15.7
72.4 41.4 9.4
80.1 51.1 13.0
80.4 50.6 20.8
80.4 50.4 20.7
81.2 50.3 12.4
81.2 50.3 12.4
15.2 9.4 4.2
125.4 77.6 31.3
153.0 93.4 19.9
153.6 89.6 25.6
155.4 94.2 29.7
180.4 113.6 33.4
159.8 101.1 41.7
223.1 128.2 32.1
224.2 130.8 27.8
216.1 135.8 30.4
201.5 131.1 35.1
210.4 139.2 56.5
233.4 140.8 38.3
236.8 135.5 53.6
230.0 129.1 62.6
229.9 160.1 49.6
89.4 58.1 25.0
93.1 59.3 26.0
30.1 18.2 5.7
108.6 69.0 14.3
128.0 67.0 20.4
142.9 97.2 36.9
150.8 94.5 38.7
168.9 99.9 41.5
173.0 95.4 26.8
178.6 122.1 44.9
183.4 104.1 39.9
191.5 125.9 47.1
166.0 104.4 42.9
222.6 122.6 38.3
220.6 136.9 33.5
215.9 132.1 38.7
219.0 135.5 48.3
212.1 136.2 44.4
234.2 137.6 43.3
53.5 32.2 7.0
77.9 50.1 10.8
118.4 72.2 30.8
133.0 68.1 26.6
142.9 91.1 25.1
158.0 85.9 30.9
168.6 98.0 38.6
190.1 116.1 30.7
187.6 129.6 34.8
193.8 127.9 35.9
164.5 104.9 43.1
233.9 135.8 31.2
237.1 148.8 35.2
238.2 128.0 59.1
234.5 159.2 59.9
85.8 59.6 17.1
89.6 58.7 23.8
30.2 18.3 6.7
71.5 40.6 11.5
74.1 45.1 14.7
78.0 52.7 20.0
77.8 52.6 19.8
82.2 50.1 15.4
107.9 57.4 20.2
137.2 82.9 24.4
172.0 114.3 38.4
174.8 103.0 32.1
170.1 115.1 36.7
181.6 100.9 40.8
179.2 113.9 46.3
194.1 127.9 32.3
157.2 102.8 26.1
205.2 140.1 38.6
203.9 130.9 40.0
205.5 141.8 41.5
227.0 123.8 46.6
236.5 147.8 37.7
234.5 132.5 33.4
233.9 153.2 54.3
64.0 38.1 13.7
58.6 39.2 10.1
104.2 63.5 22.4
113.5 72.8 31.0
122.5 78.7 27.2
147.4 81.3 39.9
147.4 81.4 40.0
172.9 95.8 27.0
179.0 104.5 47.7
214.2 123.1 51.3
216.9 114.9 50.5
208.4 135.5 45.7
219.0 145.4 60.9
231.6 148.4 31.1
232.6 136.1 50.2
236.2 136.9 50.0
233.2 159.6 41.4
228.2 155.8 46.3
86.2 47.4 17.4
99.8 58.1 23.1
98.9 64.9 18.2
35.9 19.2 7.2
82.2 50.2 13.6
181.2 93.1 33.4
137.0 74.6 28.4
144.1 95.0 26.6
173.0 96.8 31.0
168.4 107.3 43.0
178.8 105.6 32.1
179.4 119.9 45.8
185.4 118.8 32.7
185.0 112.9 50.8
180.6 110.1 52.4
194.6 127.2 38.5
222.4 124.0 36.3
236.9 147.0 43.8
97.8 62.1 24.6
97.4 63.5 19.0
94.3 63.5 15.6
57.0 29.2 12.3
81.8 46.0 21.5
15.8 9.0 3.9
119.7 74.2 27.9
159.1 96.4 37.3
151.1 86.8 32.1
195.4 116.1 28.2
195.2 116.1 28.2
164.6 101.6 28.0
204.9 141.5 41.6
220.8 135.2 30.0
239.8 128.4 35.4
239.6 128.5 35.5
239.5 128.2 35.4
239.9 128.8 36.0
234.1 134.6 45.6
247.5 144.9 45.2
239.6 140.5 68.4
239.8 140.6 68.1
240.1 138.1 50.7
92.9 58.4 19.8
97.8 64.0 16.8
82.6 47.4 19.4
117.2 66.9 31.4
143.8 92.8 27.0
147.1 96.2 37.1
137.8 84.8 28.1
173.6 103.6 21.5
173.6 103.6 21.6
183.4 113.3 32.3
175.8 113.1 42.0
182.9 123.8 44.5
226.9 121.6 46.8
234.5 148.6 31.1
42.8 25.0 8.6
54.5 31.6 10.2
83.9 48.2 14.1
112.1 72.4 30.1
130.2 75.8 17.3
148.8 92.3 27.4
155.4 82.3 34.1
166.1 84.9 34.4
196.4 114.1 44.5
196.2 113.2 33.9
219.9 113.0 42.4
199.9 108.4 48.7
224.0 133.2 35.6
213.2 147.1 38.4
221.1 146.4 49.0
235.8 137.0 40.3
235.8 137.0 40.3
235.8 137.4 40.2
230.6 132.0 41.7
234.8 131.5 53.3
83.9 49.8 22.7
86.2 51.9 11.8
85.2 57.9 15.8
99.2 67.2 19.0
97.9 65.0 25.0
65.1 42.5 12.1
77.6 47.8 13.2
82.9 49.4 11.1
122.1 76.9 33.8
148.9 85.8 19.2
137.6 83.2 28.1
151.0 91.9 19.7
171.9 89.4 38.5
245.1 133.4 60.7
245.1 133.4 60.7
247.9 126.8 53.0
86.8 47.8 20.4
56.8 29.9 11.5
25.5 16.8 5.3
25.5 16.8 5.3
181.4 96.9 32.7
124.3 77.1 29.5
117.8 79.9 27.4
145.5 99.6 30.4
161.1 93.9 34.4
183.6 123.0 31.0
203.0 118.6 25.0
201.8 117.6 36.3
218.5 121.8 48.8
228.1 121.3 48.1
236.1 143.9 40.4
230.4 134.1 31.1
248.8 134.2 46.8
30.4 16.8 6.6
73.2 44.2 10.2
77.8 43.8 16.7
110.1 60.7 27.2
123.2 67.1 30.1
103.6 66.4 26.7
117.2 80.4 22.0
160.4 91.6 40.2
164.8 90.1 28.7
168.5 99.1 43.6
174.5 110.2 41.8
181.1 115.4 35.8
191.9 121.6 38.4
175.2 102.7 29.6
162.2 100.6 24.1
220.1 123.8 38.3
237.9 128.6 33.2
237.1 143.0 30.8
231.9 150.4 31.7
106.2 65.3 13.8
118.7 71.3 31.7
134.9 72.2 28.9
175.8 107.5 37.5
185.4 101.8 38.9
175.1 102.8 28.1
178.4 114.2 48.2
151.0 103.2 25.5
162.6 101.2 37.0
200.6 135.2 37.2
206.9 143.6 41.7
222.4 144.2 49.2
229.4 119.2 40.2
225.9 148.9 33.3
245.2 141.6 49.0
228.9 152.1 39.5
240.8 154.1 32.8
86.1 57.4 16.4
72.4 40.7 12.8
140.0 86.1 37.7
175.1 100.9 27.6
213.2 116.8 30.1
214.2 118.6 30.4
206.8 139.6 37.6
210.8 128.2 55.5
233.5 123.6 55.9
227.2 119.2 55.5
227.6 126.8 35.6
235.2 144.6 48.9
239.4 129.5 53.3
239.6 137.9 53.2
80.8 44.3 19.3
104.6 65.2 26.3
122.2 76.2 31.5
138.4 95.2 24.7
154.1 90.5 24.9
178.8 102.1 40.1
194.4 110.9 48.3
214.6 121.9 44.1
239.6 137.6 51.5
231.2 152.8 55.2
95.3 61.1 25.9
136.9 82.2 28.5
129.4 83.0 32.2
162.9 91.3 38.3
191.2 101.2 37.3
183.4 121.5 36.5
203.1 136.4 32.2
208.6 139.8 38.5
228.9 121.0 41.1
231.6 140.2 32.4
232.0 132.0 47.5
228.6 129.9 46.0
234.4 160.9 44.7
232.6 157.6 58.0
82.9 45.6 22.2
177.8 96.4 35.1
102.6 57.7 14.6
115.8 65.8 14.6
120.0 67.1 19.4
116.4 69.4 32.4
157.0 98.9 23.6
157.0 98.9 23.6
160.0 84.2 31.2
172.2 108.8 26.4
179.4 106.9 50.6
217.8 115.6 45.3
221.8 119.1 44.4
221.1 118.7 44.1
219.1 135.0 29.2
232.5 146.0 43.9
99.4 51.7 17.8
81.3 49.9 17.6
118.7 66.2 16.3
107.6 63.0 15.1
135.6 69.2 25.7
144.0 89.5 38.7
179.2 104.1 47.7
191.9 116.1 45.2
220.9 118.0 45.5
212.8 108.2 42.4
199.9 118.8 40.7
202.4 137.2 36.6
233.8 134.9 41.6
227.4 143.1 42.8
244.4 128.1 45.0
242.9 137.0 65.2
91.6 51.1 21.1
92.0 57.8 25.2
70.4 42.3 13.0
58.4 37.3 14.9
78.9 43.7 12.4
182.5 98.8 40.1
147.1 80.9 36.7
150.6 82.2 36.7
161.2 92.4 33.4
175.1 103.6 28.6
216.0 120.8 44.8
215.1 137.5 33.8
216.5 146.5 35.8
219.8 127.0 38.2
201.6 134.9 34.4
238.8 142.4 60.0
92.1 49.0 15.2
91.3 52.6 20.6
91.2 52.5 20.8
97.6 56.9 16.7
86.8 51.5 10.8
95.2 59.1 27.5
81.0 50.3 17.6
80.9 51.6 21.9
126.0 74.9 35.1
144.2 89.9 40.4
156.5 96.6 24.3
220.2 135.5 33.9
224.0 127.5 37.6
224.6 141.1 44.0
240.6 142.5 37.5
242.2 131.6 37.7
246.5 139.0 52.2
246.5 139.0 52.1
90.6 58.1 25.1
55.9 31.1 14.9
55.9 31.1 14.9
80.4 53.1 14.6
174.0 100.1 44.9
123.2 67.4 29.6
148.2 93.0 25.2
146.2 81.6 38.5
204.1 118.7 38.9
218.6 115.2 48.4
227.8 136.2 44.5
227.6 153.8 42.3
91.4 49.8 23.9
88.0 51.8 16.8
96.3 61.8 23.2
176.6 99.2 29.4
109.8 60.3 23.8
148.9 95.7 24.6
157.6 87.7 30.6
178.9 101.5 29.8
180.6 107.0 34.6
184.1 121.4 37.5
185.4 108.9 52.3
215.9 123.5 53.0
219.6 152.2 39.8
233.9 129.0 57.5
97.2 57.5 16.9
95.0 56.2 26.4
93.4 60.3 25.4
66.8 43.2 12.2
78.8 45.7 10.2
83.3 47.4 23.3
122.2 74.4 30.5
148.5 90.3 18.6
135.8 89.5 38.1
144.4 85.1 26.3
170.4 98.8 21.5
173.9 98.8 33.3
178.9 102.9 46.7
178.8 103.1 46.7
183.6 118.1 51.0
196.6 136.9 43.9
162.8 105.8 27.5
221.8 117.5 44.6
207.0 143.1 40.4
213.9 138.1 40.3
206.2 138.9 38.4
226.1 120.6 35.6
236.6 141.8 31.2
233.6 136.9 37.6
235.0 127.4 33.0
241.2 141.1 64.2
76.8 49.9 16.7
83.5 51.9 14.2
15.7 9.0 3.7
119.8 77.4 22.7
118.0 77.7 26.3
125.5 71.5 29.5
139.6 96.6 33.0
142.5 98.4 34.3
151.8 91.3 19.1
172.4 94.7 24.6
171.9 106.7 47.9
181.9 116.2 26.9
182.9 115.6 27.2
162.1 101.0 22.5
203.9 116.1 43.1
237.5 134.1 37.2
248.9 133.0 47.4
234.1 152.5 43.8
94.8 62.5 22.0
33.1 17.6 8.4
83.5 49.1 16.9
83.5 49.1 16.9
82.2 47.0 19.3
120.6 73.1 18.1
112.9 72.7 27.0
124.9 68.6 33.1
155.8 87.0 21.4
162.6 86.3 25.1
156.0 83.0 34.0
172.5 108.9 25.6
177.1 101.2 38.3
185.5 100.8 43.2
196.6 105.4 35.5
179.5 104.6 45.4
196.8 117.8 31.4
191.0 129.2 37.2
193.9 126.5 40.1
195.1 127.1 31.2
162.0 104.1 43.6
208.0 114.8 41.0
227.4 141.6 42.9
233.9 134.4 53.5
238.8 144.1 64.1
93.1 60.3 25.6
71.7 45.5 14.3
71.6 45.5 14.3
182.5 97.9 46.0
162.5 97.4 44.1
162.4 97.4 44.1
168.9 113.0 30.4
169.6 107.4 42.6
173.8 101.4 49.1
177.6 104.5 29.4
177.1 101.8 30.5
188.6 108.9 29.2
187.2 101.5 31.0
198.6 105.8 48.0
197.8 134.6 38.1
201.0 111.9 34.1
210.2 140.8 43.6
210.4 128.1 54.4
226.8 126.9 35.9
230.2 130.2 32.3
231.9 139.2 43.1
240.9 142.9 38.3
240.9 142.8 38.2
226.8 138.2 61.5
229.9 126.4 53.8
97.0 58.9 14.3
63.2 43.3 14.4
79.5 51.1 15.3
138.2 89.6 28.1
137.5 83.2 28.2
155.8 87.5 22.0
167.1 88.2 38.1
197.2 113.1 36.2
175.4 116.6 42.6
166.2 104.8 28.4
165.4 102.4 29.2
216.0 121.6 30.2
230.1 124.8 43.8
228.5 125.4 35.6
232.5 128.5 34.5
234.5 139.1 38.1
232.4 130.2 50.4
232.4 130.1 50.5
231.0 154.6 54.9
94.7 61.5 22.1
85.8 51.3 11.9
92.2 58.6 26.1
73.5 44.2 11.5
27.4 15.0 4.9
176.4 99.1 29.5
117.1 67.9 15.9
143.9 96.0 25.5
148.4 81.4 36.9
163.0 99.8 39.9
184.5 114.9 35.3
157.5 101.2 40.3
218.0 120.4 46.6
217.9 120.3 47.0
224.4 136.0 33.9
208.6 141.0 38.8
245.5 136.2 39.2
239.5 137.4 54.3
93.4 51.9 17.7
94.1 62.0 19.8
35.4 22.5 8.8
86.2 46.0 12.8
106.6 66.6 29.4
136.8 91.9 37.4
156.4 88.4 41.3
168.9 88.6 35.0
190.0 107.5 40.9
168.8 105.5 23.1
166.2 105.1 42.7
204.5 141.8 41.7
204.4 141.9 41.6
213.2 139.8 39.5
219.5 151.9 44.3
226.9 124.9 33.1
227.5 126.1 43.0
245.4 148.1 42.4
85.7 57.6 15.5
85.9 57.5 15.4
98.1 66.2 24.0
83.3 42.5 15.7
25.0 14.3 5.8
119.0 81.2 28.5
126.2 70.0 33.7
138.1 78.1 20.1
155.2 88.4 20.1
182.6 105.4 39.7
191.6 105.9 25.5
223.2 124.6 39.8
203.1 118.9 29.3
203.2 118.9 29.3
203.1 118.9 29.3
203.2 119.2 29.5
211.1 111.6 49.9
222.8 130.9 28.5
207.1 143.9 43.0
204.0 131.1 41.2
206.9 139.2 39.1
206.9 139.1 39.1
238.0 146.8 30.3
241.6 134.0 53.9
94.2 58.2 18.5
81.2 42.5 14.7
80.4 51.1 15.1
174.2 99.1 34.5
122.8 67.6 17.4
149.2 92.2 20.6
147.0 92.6 19.0
160.2 83.1 32.3
178.9 105.3 45.0
193.0 124.2 41.8
181.4 125.9 40.4
190.5 128.0 46.5
152.4 104.2 37.1
43.7 27.2 12.5
81.8 50.2 14.3
123.1 67.3 29.9
117.2 75.1 27.9
127.7 83.2 30.2
136.8 80.4 28.7
137.0 87.9 28.5
156.2 99.2 41.2
174.1 102.8 35.8
198.5 129.0 34.8
168.6 101.8 26.3
217.6 115.2 39.1
210.6 123.9 26.2
223.0 119.6 37.1
204.6 115.2 48.8
218.4 147.8 40.5
234.1 135.6 31.8
232.1 159.9 59.5
232.2 159.9 59.6
78.8 47.5 15.3
79.4 51.1 18.4
18.9 10.5 5.1
177.5 96.8 30.2
177.6 97.0 30.4
181.1 97.8 32.9
103.0 67.3 24.5
112.9 77.6 27.5
